16.15914345 -2.72027516 41.40289307
15.94791031 -2.58825517 41.79965973
15.76138878 -2.56222749 42.22873306
15.52180767 -2.57290292 42.63187027
15.27701187 -2.68802023 43.01448441
15.10788822 -2.84699631 43.42181396
15.06656837 -2.96421957 43.87344360
15.04801846 -3.03844166 44.33680725
14.92763901 -3.11149740 44.78415680
14.82486725 -3.20264602 45.23297501
14.79769039 -3.19714522 45.70078278
14.80410671 -3.23574853 46.16786194
14.77899170 -3.41850853 46.59798813
14.68093204 -3.63417792 47.00346375
14.59078121 -3.86316133 47.40370560
14.47737122 -4.05819750 47.81567383
14.40348148 -4.26889563 48.22885513
14.36663532 -4.48855305 48.64243698
14.37107468 -4.62269354 49.09145355
14.35485744 -4.67586136 49.55766678
14.29438210 -4.71344233 50.02175522
14.12308502 -4.72328329 50.45819473
13.98198986 -4.71237803 50.90584946
13.78737926 -4.66286564 51.33000946
13.66330624 -4.56246948 51.77090836
13.50883770 -4.44509315 52.19862366
13.38485146 -4.35448027 52.64194107
13.38109398 -4.21420527 53.08885574
13.39822388 -4.17510748 53.55480957
13.43655777 -4.25921774 54.01450348
13.57706547 -4.33880043 54.45478439
13.64466763 -4.34816980 54.91800308
13.63578415 -4.36026287 55.38745880
13.61943436 -4.30915499 55.85337448
13.62256050 -4.13826418 56.29003525
13.58740807 -3.97071266 56.72740555
13.53218651 -3.74912477 57.13760757
13.43167591 -3.55829048 57.55422974
13.33380508 -3.45791769 58.00210571
13.24417782 -3.38602591 58.45756531
13.10760880 -3.41879606 58.90488052
13.02931976 -3.37760639 59.36454010
12.96409416 -3.28836465 59.82115936
12.96890163 -3.28484631 60.28950500
13.05004215 -3.21850491 60.74642181
13.07036686 -3.10303330 61.20086288
13.10809040 -2.97088456 61.65013885
13.11715031 -2.83949900 62.10093689
13.08414650 -2.74744725 62.56040573
12.22593498 -27.06820869 54.74067688
12.23698044 -26.81882858 54.34315872
12.31816196 -26.54872131 53.96935272
12.47076702 -26.39835739 53.55345535
12.54008293 -26.35038757 53.09255219
12.53914070 -26.28546143 52.62782288
12.63032341 -26.18666077 52.17889786
12.75946808 -26.14478874 51.73027802
12.76378059 -26.03774643 51.27431488
12.74705887 -25.82221031 50.85869980
12.81451797 -25.53684425 50.49274826
12.94618607 -25.25073051 50.14419174
13.03730202 -24.94993019 49.79496002
13.15462685 -24.69738197 49.41770935
13.32368469 -24.51074791 49.02281952
13.60214615 -24.31297874 48.70212555
13.90762043 -24.19788742 48.36586761
14.12277412 -24.02526283 47.98742676
14.31770039 -23.74381065 47.66672134
14.42390251 -23.44094276 47.32479858
14.49081230 -23.17032242 46.94768524
14.65377045 -22.93425941 46.57609177
14.82483101 -22.72600174 46.19245529
15.03029346 -22.43956947 45.88206100
15.21834946 -22.17008400 45.54829407
15.35172749 -21.96918488 45.14547348
15.43932056 -21.72856140 44.75196457
15.47971439 -21.51615143 44.33475494
15.54806423 -21.33389282 43.90818024
15.65426254 -21.23035622 43.46362305
15.84491730 -21.04338646 43.07910919
16.05521393 -20.76940727 42.76280594
16.34285355 -20.53166771 42.47841644
16.54575920 -20.29932022 42.12582016
16.72368813 -20.17782593 41.70947266
16.88509178 -20.13084793 41.27077484
17.01033020 -20.09277344 40.81964874
17.10053825 -20.07108116 40.36007309
17.13056755 -19.99717522 39.89782333
17.24837112 -19.98424530 39.44380951
17.38004875 -20.01600838 38.99441910
17.55605316 -19.95483589 38.56399918
17.77507401 -19.82657623 38.16878510
18.02347565 -19.65547752 37.81001663
18.33135223 -19.44291115 37.52602005
18.64474678 -19.22495079 37.25268173
18.99794579 -19.05385208 36.99435425
19.32628250 -18.85963821 36.72099686
19.62092590 -18.71514130 36.38720703
19.96587181 -18.70641136 36.06954956
20.34312057 -18.73015404 35.79053116
20.69960976 -18.71429634 35.48635864
20.95891380 -18.65064049 35.10243607
21.10867310 -18.54392052 34.67016220
21.28769493 -18.43888855 34.24956131
21.55488968 -18.38882256 33.86796188
21.88000488 -18.32820892 33.53506851
22.14378166 -18.28065300 33.14961624
22.42711067 -18.15768623 32.79648209
22.72258568 -17.98510170 32.47571564
22.92400360 -17.79174805 32.09865952
23.07112312 -17.62038612 31.68773270
23.16183281 -17.38960075 31.28883743
23.29824448 -17.23470497 30.86877441
23.49209023 -17.15451241 30.44891548
23.57076454 -17.01426506 30.01006699
23.54157639 -16.86933136 29.56524086
23.59098244 -16.85071564 29.10069656
23.67572594 -16.95627022 28.65104103
23.81568718 -17.04617119 28.21280098
23.99290848 -17.05628777 27.77895355
24.08480072 -17.04857635 27.31850433
24.26884842 -17.05818176 26.88857651
24.55599785 -17.02926636 26.51922417
24.83266830 -16.90168190 26.16302299
25.16844177 -16.77794075 25.85983276
25.44084930 -16.69914627 25.48563766
25.64961624 -16.60070992 25.07763481
25.75050163 -16.53665924 24.62424278
25.80038071 -16.50474548 24.15833473
25.85812187 -16.44280434 23.69744301
25.80133247 -16.42714310 23.23185730
25.71497154 -16.36878967 22.77356720
25.60498619 -16.29260635 22.32456779
25.40401077 -16.12722969 21.93535995
25.20256805 -15.88770771 21.58563805
24.96191216 -15.65783119 21.25749969
24.65582466 -15.52873230 20.92792702
24.37537003 -15.41040802 20.57153893
24.10049248 -15.29738617 20.20933151
23.80461311 -15.20830822 19.85601997
23.50772285 -15.04989815 19.52853966
23.25623512 -14.88491535 19.16902542
22.98333549 -14.76720810 18.80726814
22.63290405 -14.63776970 18.52408791
22.27383232 -14.45541191 18.28211784
21.89208984 -14.24594498 18.11162949
21.46282768 -14.08571911 18.01250648
21.03847694 -13.97570038 17.84744263
20.63564873 -13.81378365 17.67215347
20.25623894 -13.61736298 17.48097992
19.92823601 -13.39406300 17.23068237
19.61882782 -13.11282825 17.01700020
19.36606979 -12.80522633 16.77224541
19.10974312 -12.54935932 16.47721672
18.73756409 -12.36622143 16.26207352
18.34968948 -12.15122700 16.10987473
18.00473785 -11.89057541 15.92633915
17.65169716 -11.62919807 15.76123333
17.30079460 -11.32864475 15.68362808
16.99484253 -10.97937489 15.61573029
16.67837715 -10.66464043 15.47373867
16.33529663 -10.40646839 15.28290653
15.98240852 -10.14797878 15.11231041
15.59023952 -9.93452740 14.96963406
15.20883083 -9.72881889 14.79183197
14.87218380 -9.48521614 14.57242393
14.61131668 -9.21962929 14.29035378
14.39074802 -8.90175056 14.02748680
14.12577438 -8.61996460 13.76573277
13.91174316 -8.36907864 13.43324566
13.75977421 -8.04697800 13.12798786
13.54706955 -7.71282387 12.87850761
13.22169685 -7.42660141 12.70174599
12.89921188 -7.13169575 12.53405571
12.67396069 -6.78277063 12.31616879
12.45324993 -6.41187143 12.13324833
12.18756104 -6.07798576 11.93977261
11.89851475 -5.76527405 11.74368763
11.64522743 -5.41984463 11.55481720
11.47521782 -5.05217838 11.31712532
11.36510181 -4.64937687 11.10370541
11.29157734 -4.25689888 10.85939217
11.18205166 -3.89665079 10.57952023
11.06542492 -3.57074428 10.26501751
10.98824883 -3.30266023 9.88688660
10.95467472 -3.01442480 9.51843834
10.97857094 -2.68676782 9.18269157
10.95876980 -2.33974600 8.86856174
10.88209152 -2.00047302 8.55272865
10.81881618 -1.67417598 8.22051811
10.70004940 -1.31670117 7.94439268
10.49909973 -0.94110692 7.74646425
10.26966190 -0.59286731 7.53102589
10.02449036 -0.26614964 7.29875994
9.79520988 0.09872075 7.11416149
9.55190563 0.47890404 6.98635626
9.25067329 0.80827135 6.84242964
8.94136429 1.13956070 6.72570992
8.68602180 1.52081966 6.63113737
8.45439339 1.88932228 6.45635319
8.25441074 2.25754380 6.24641609
8.09341717 2.66298413 6.07281590
7.91916609 3.07530618 5.92964792
7.80107355 3.50827098 5.79465485
7.71068478 3.95510006 5.68189478
7.64175034 4.41271782 5.60834122
7.60738802 4.86913204 5.50752544
7.55237103 5.30971050 5.35357523
7.47587061 5.76241016 5.25925779
7.36246586 6.21789265 5.25431252
7.21611166 6.66005754 5.20843077
7.05857944 7.09302664 5.11746311
6.95530462 7.53850317 5.01616526
6.92883492 7.99436283 4.90694618
6.91895485 8.45901012 4.83750963
6.90164804 8.92421150 4.77326536
6.89720201 9.39220047 4.73548317
6.91417599 9.86117554 4.71220446
14.48727512 3.33248830 21.87263680
14.87470341 3.30708289 21.60959625
15.20396137 3.34664440 21.27840805
15.44652653 3.44407535 20.88941193
15.58474541 3.54230285 20.45291138
15.62295437 3.67199659 20.00493813
15.70187950 3.87063479 19.58925629
15.82627106 4.04514885 19.17209625
15.93550873 4.24546671 18.76305199
16.05156898 4.47430563 18.36981010
16.16767883 4.64505291 17.94816780
16.25065613 4.85876942 17.54135704
16.31361580 5.06790352 17.12845802
16.38817406 5.14721060 16.67232895
16.42013168 5.16349220 16.20403862
16.44628525 5.18127108 15.73537064
16.52581596 5.26229429 15.28065300
16.57976723 5.35052729 14.82414436
16.50519943 5.39863920 14.36447906
16.30777550 5.50556517 13.95458698
16.00407410 5.61046410 13.61521912
15.68101406 5.68597364 13.28366661
15.34176350 5.76850128 12.97162151
14.96542072 5.87792301 12.71402550
14.62967110 6.10786152 12.48342228
14.30964375 6.33601093 12.23046970
13.96604156 6.44032717 11.92873001
13.61705494 6.50677443 11.62116718
13.29171181 6.66228914 11.32324791
13.00690651 6.89946699 11.03440380
12.67556286 7.09156752 10.76652241
12.34802914 7.24681377 10.47135162
12.05649567 7.43650770 10.15634632
11.72625446 7.64518309 9.89539623
11.35232067 7.82044697 9.67316055
11.00208282 7.97079325 9.40279961
10.69968605 8.15733624 9.09606838
10.36884022 8.34346199 8.81959248
10.07699776 8.55523586 8.52182388
9.86315250 8.78885746 8.17549896
9.66851139 9.00198460 7.80465269
9.48281384 9.20002460 7.42139387
9.23211002 9.35242462 7.05742598
8.94376564 9.49725914 6.71649408
8.68370724 9.66568279 6.36318159
8.39843178 9.79610538 6.01440430
8.06373215 9.88140392 5.69658613
7.72700500 9.92933655 5.37397814
7.40381908 10.01234341 5.04624224
7.05723953 10.18248367 4.77903128
6.73093987 10.36478519 4.49592733
6.48113680 10.57034588 4.15631342
6.31113100 10.76372910 3.76503801
6.19317293 10.93437862 3.34353304
6.09956598 12.37926960 1.50348961
6.06818914 11.92160130 1.60444510
6.06425285 11.47825623 1.75868464
6.11719608 11.04352379 1.92767024
6.15646029 10.59472466 2.05782628
6.14611244 10.14600754 2.19577694
6.19508076 9.69516087 2.30978894
6.35163403 9.26749516 2.41731620
6.56069517 8.86970234 2.55446982
6.78161383 8.46301651 2.63272142
6.98771238 8.05410862 2.73178363
7.20583296 7.65692139 2.85280252
6.09866762 11.40999603 4.80499458
6.30161381 11.18166542 5.16172552
6.52631235 10.92516041 5.48219967
6.75698280 10.67524910 5.80370283
6.97338486 10.52715492 6.19126368
7.20655775 10.51473331 6.59731150
7.47181463 10.54430008 6.98282099
7.75850534 10.54521561 7.35492086
8.02003860 10.47545147 7.73721886
8.25680351 10.31348419 8.10902786
8.50620270 10.14567184 8.46965408
8.72591209 9.97736168 8.84744358
8.89311409 9.73552036 9.21214771
9.07806492 9.46792030 9.55086994
9.28982067 9.25247383 9.91037464
9.52974224 9.02789879 10.24515915
9.78348351 8.77744770 10.55128384
9.98447990 8.49428368 10.86545086
10.11848354 8.23071003 11.22813702
10.32117558 8.05723286 11.61175060
10.54650116 7.91442537 11.99700642
10.68796921 7.74204922 12.41000080
10.83336067 7.57052708 12.82189274
11.03120136 7.42276049 13.22149754
11.31261444 7.26538658 13.56024170
11.64399624 7.10845423 13.85413361
11.97822762 6.90070534 14.10753918
12.33439445 6.67809534 14.31725502
12.70215988 6.47170019 14.52433968
13.08562946 6.27440739 14.71008396
13.46713734 6.12880802 14.93996906
13.78603268 5.93048763 15.21781349
14.10877609 5.69257689 15.45994091
14.44688129 5.47608423 15.70276356
14.70209217 5.23932171 16.01627159
14.86527061 4.93085480 16.32665253
14.95303154 4.51808977 16.52830696
15.04846954 4.07734966 16.65838432
15.20639038 3.64794445 16.76444435
15.34228516 3.20678878 16.84861183
15.47418785 2.76313448 16.92685509
15.68158722 2.34677458 16.98954964
15.91877270 1.94633162 17.05344963
16.17893600 1.56131005 17.12061119
16.47677803 1.20843792 17.20581055
16.75568199 0.87397629 17.37867546
17.04318428 0.55045968 17.55832100
17.36607552 0.23190957 17.68124771
17.65032959 -0.10922207 17.83180428
17.91734505 -0.41991878 18.05897331
18.21803284 -0.60475439 18.36518860
18.52869987 -0.71086609 18.70150185
18.89540291 -0.80907077 18.97448540
19.28956413 -0.88521200 19.21753120
19.63670731 -0.94960731 19.52689934
19.92194939 -1.02886391 19.89093399
20.13840866 -1.18177176 20.27713394
20.27993011 -1.37590325 20.68019295
20.40053749 -1.48467374 21.11913490
20.58339500 -1.59488976 21.53437424
20.85954857 -1.73196054 21.88673019
21.17719269 -1.77634394 22.22904205
21.52285385 -1.78904986 22.54557610
21.90854454 -1.89730906 22.78609085
22.27143288 -2.05943561 23.03475761
22.58518219 -2.25714040 23.32081413
22.85661507 -2.49123192 23.62392044
23.15130234 -2.62780881 23.96013069
23.43395996 -2.70400643 24.32636261
23.62665558 -2.74545860 24.75088120
23.73687744 -2.78572369 25.20455742
23.81539536 -2.83642578 25.66451263
23.90046692 -2.88679171 26.12340355
24.06987953 -2.94197011 26.55513382
24.37116814 -3.00936580 26.90583420
24.68702316 -3.11297035 27.23671913
24.97845078 -3.24026990 27.58189011
25.23647308 -3.39898181 27.93975830
25.47080040 -3.51719713 28.32884598
25.71860123 -3.52497864 28.72583580
25.89830589 -3.44683552 29.15139771
25.96192551 -3.35282898 29.60613823
25.91226578 -3.24319410 30.05933189
25.84145927 -3.13990784 30.51166916
25.81031227 -3.07668805 30.97615814
25.79559708 -3.09111762 31.44449806
25.73832130 -3.10121417 31.90854836
25.69787598 -3.03810239 32.37068176
25.69449234 -2.89758873 32.81712341
25.61034775 -2.66824508 33.21704483
25.47196388 -2.44264245 33.60504532
25.29354858 -2.25031710 33.99436951
25.01838684 -2.05429125 34.31761932
24.69748878 -1.86559319 34.60392761
24.44159126 -1.65894747 34.93743515
24.24746513 -1.48034191 35.32452393
24.06252861 -1.32240498 35.72604752
23.85915375 -1.11344707 36.09420013
23.56990051 -0.93531173 36.41523361
23.22026443 -0.77333140 36.68351364
22.85748482 -0.56219447 36.89294815
22.47715187 -0.37963629 37.09737778
22.08885384 -0.32726076 37.35227585
21.73307228 -0.39007729 37.65114212
21.40995598 -0.39639893 37.98866272
21.14091110 -0.32539305 38.36555862
20.92308617 -0.23774451 38.77236176
20.68675804 -0.08183802 39.14616776
20.41249466 0.08338328 39.48957062
20.10070610 0.18721548 39.82501602
19.78368187 0.27397272 40.16059875
19.45240974 0.35587835 40.48308945
19.11357689 0.44218650 40.79661942
18.83532715 0.56533277 41.15328217
18.56647491 0.63795024 41.52953720
18.27487373 0.70897585 41.88937759
17.99397087 0.81964803 42.24926376
17.74953270 0.84537482 42.64713669
17.53133774 0.82692343 43.06267548
17.25949097 0.79243600 43.44300842
16.94477272 0.75146890 43.78925323
16.69267273 0.76498026 44.18229675
16.56918144 0.86173803 44.62298584
16.45179749 1.05605888 45.03232193
16.29688263 1.34439003 45.36729813
16.19591141 1.64446259 45.71184540
16.13215637 1.87278187 46.11721802
16.00314331 2.07007909 46.52218628
15.76077366 2.26772404 46.87085342
15.44495392 2.45009542 47.16680145
15.15791225 2.60361791 47.50327682
14.91656399 2.76453638 47.87268829
14.71657372 2.99708104 48.22632217
14.59535503 3.25334024 48.60026932
14.52540016 3.50573182 48.99006271
14.41769123 3.71893263 49.39154816
14.25611305 3.85102987 49.81243896
14.07052231 3.94858098 50.23251343
13.93479538 4.06463242 50.66414642
13.89234161 4.19769573 50.94384384
13.93091011 11.25502014 60.34517670
13.90947533 11.23688602 60.19110870
13.79746437 11.18754292 59.73857117
13.64471340 11.19665623 59.29499817
13.56894779 11.15786552 58.83444977
13.60242176 11.18709469 58.36825943
13.73410702 11.11428738 57.92476654
13.89215374 10.97882938 57.50393677
14.04720402 10.93922424 57.06364059
14.24906063 10.95084190 56.64090347
14.39694118 10.88153553 56.20141220
14.47848511 10.90909195 55.74051666
14.49653816 10.91101456 55.27200699
14.61688900 10.82262135 54.82828522
14.80246353 10.67489243 54.42276764
14.97005367 10.56911373 53.99750519
15.10784149 10.54643154 53.54976273
15.28516293 10.60512543 53.11907578
15.38819504 10.69121361 52.67033768
15.42724705 10.71912766 52.20416641
15.58845615 10.70795631 51.76382065
15.78000069 10.60077477 51.35065842
15.99975300 10.41203690 50.98198318
16.23241425 10.33456326 50.58152771
16.44640732 10.28863811 50.16649628
16.70993614 10.31612492 49.77895355
17.02397919 10.33354759 49.43060684
17.35716248 10.27306271 49.10530853
17.66180038 10.18579578 48.75895309
17.91535950 10.14227200 48.36652756
18.11650085 10.05952740 47.95133209
18.34555435 9.91269970 47.56930923
18.51257706 9.87926483 47.13356781
18.60578156 9.93255329 46.67694855
18.65384293 9.95687294 46.21099472
18.74562454 10.04507923 45.75889206
18.82950783 10.07598782 45.29819870
18.97423553 10.11558342 44.85342026
19.07765007 10.18177700 44.40095901
19.16570282 10.09999180 43.94889450
19.24290848 9.93631554 43.51631927
19.35623169 9.86184597 43.06690979
19.39775467 9.75507069 42.61162186
19.39712524 9.62334061 42.16074753
19.35962868 9.53110886 41.70207596
19.26456451 9.43112183 41.25315475
19.19951820 9.36137772 40.79316711
19.10723495 9.31471729 40.33569336
19.09821320 9.35098171 39.86805344
19.10076904 9.43101406 39.40556335
19.01083755 9.47272968 38.94702911
18.86483574 9.42179012 38.50543594
18.73696518 9.22449875 38.10088730
18.71661758 8.97550964 37.70415878
18.72246361 8.78107834 37.27731705
18.63394547 8.57844257 36.86446762
18.52706337 8.49208164 36.41558075
18.48243904 8.40227890 35.95714569
18.47294807 8.25680733 35.51061249
18.42487907 8.08769798 35.07493591
18.37903023 7.88234138 34.65500259
18.30594444 7.67772532 34.23947525
18.28527451 7.57391977 33.78371429
18.36345291 7.47380352 33.33191299
18.36624146 7.32910681 32.88517761
18.43546677 7.14041615 32.46255875
18.61223221 6.91844606 32.08834076
18.74567032 6.67636490 31.70927238
18.82646179 6.48705101 31.28697014
18.95885468 6.29835415 30.87953758
19.17401314 6.05312204 30.54244232
19.31198311 5.75034809 30.21161842
19.35847092 5.43466806 29.86790848
19.35173798 5.15644836 29.49048615
19.42382622 4.93843985 29.08076859
19.48591614 4.73527288 28.66201782
19.48385429 4.52994776 28.23945236
19.46193504 4.35389042 27.80500793
19.32376671 4.22274494 27.37808609
19.05608559 4.17753506 26.99654198
18.72984123 4.16217375 26.65899467
18.46266174 4.18775606 26.27500153
18.26906776 4.28394842 25.85876083
18.11799812 4.41922951 25.43531036
17.95044518 4.54655075 25.01573181
17.79836464 4.66033697 24.58647537
17.68998528 4.79615402 24.14994431
17.61088562 4.89284563 23.69742012
17.53939819 4.98147583 23.24169922
17.45744896 5.05492496 22.78549957
17.41920853 5.12835455 22.32438660
17.37337494 5.25489283 21.87528801
17.26862144 5.41262674 21.44536209
17.14764404 5.56122208 21.01665688
17.02647591 5.68423891 20.57963943
16.98436356 5.80808496 20.12996864
17.05559731 5.93871593 19.68504906
17.14033127 6.01897049 19.23179626
17.17220688 6.05317736 18.76441574
17.15650368 6.09268141 18.29671860
17.13320541 6.05994940 17.82985306
17.12017822 5.90626049 17.38752556
17.11905861 5.74000740 16.94917107
17.14312553 5.66381407 16.48667145
17.12859726 5.67827463 16.01863861
17.12254333 5.81673193 15.57272434
17.10212326 6.02007866 15.15118694
16.98632050 6.16662693 14.72122765
16.86240005 6.25160837 14.27619362
16.72928619 6.32042122 13.83113861
16.52777672 6.45595360 13.43197727
16.24481583 6.58104706 13.08221149
15.91071510 6.65878773 12.76172447
15.56012058 6.83552265 12.50787258
15.22270679 7.07278156 12.28319073
14.90221882 7.32001209 12.04460049
14.62146759 7.55024767 11.74996471
14.37888527 7.73729324 11.39361858
14.08057880 7.90822887 11.07534313
13.76555538 8.12734509 10.80656052
13.47832870 8.34320450 10.50644779
13.19854355 8.47636032 10.15344906
12.88555908 8.58369541 9.82133770
12.55994987 8.73039627 9.51735115
12.24277592 8.86511898 9.19959927
11.91660976 8.96410370 8.87635994
11.61206055 9.05818558 8.53143692
11.30367470 9.18306541 8.20172787
10.99873257 9.40156174 7.91982079
10.69352722 9.67027283 7.68536758
10.34870529 9.89308548 7.45985270
10.01330471 10.05074883 7.17225647
9.75749207 10.18652534 6.80417156
9.56644535 10.30367947 6.39116669
9.33593369 10.42279339 6.00077438
9.10159397 10.51337242 5.60543966
8.84580898 10.53239250 5.21497297
8.56737900 10.55244255 4.83881712
8.30719090 10.59503555 4.45030403
7.99229860 10.62700272 4.10364866
7.68742657 10.73684597 3.76659727
7.41602945 10.86574268 3.40647221
7.13510609 11.00125122 3.05665374
6.39216328 10.64758682 3.30685568
6.48288298 10.45834732 3.72714138
6.65049219 10.24919415 4.11011791
6.86241913 10.00069618 4.44796276
7.13188457 9.78757477 4.76464891
7.39660215 9.59824467 5.09963751
7.62180328 9.40449047 5.46295834
7.91534901 9.28586769 5.80802345
8.20653534 9.20356655 6.16669273
8.49268723 9.14583874 6.53350544
8.78901672 9.11174774 6.89622450
9.03325558 9.00957680 7.28308153
9.21318436 8.83456230 7.67970610
9.39027405 8.60148239 8.04653072
9.62475395 8.32715797 8.34586716
9.85166264 8.07580090 8.66798592
10.04722595 7.92699337 9.06683254
10.30479527 7.79837465 9.43546677
10.63823605 7.66017342 9.73525524
10.98865700 7.50389576 10.00502110
11.31106567 7.29376364 10.27458286
11.63515091 7.10153151 10.55495548
11.97082710 6.87880898 10.79381180
12.30179310 6.66105556 11.04252815
12.66402912 6.50554276 11.29639339
13.01734447 6.31713820 11.53961754
13.34417629 6.14918375 11.83061600
13.62306881 5.98501873 12.16762638
13.86144733 5.80026007 12.52730656
14.10551262 5.58377123 12.86346436
14.33736134 5.30686378 13.16401386
14.64346409 5.06936312 13.42600918
14.97192097 4.85704756 13.68513203
15.21519279 4.64699745 14.02510452
15.34776783 4.39918804 14.39834499
15.44739628 4.12596893 14.76655388
15.63269424 3.88606071 15.12370205
15.82116413 3.57996011 15.42188835
15.99351597 3.20033574 15.63521671
16.25803947 2.85319114 15.80522823
16.55671120 2.53060365 15.97068501
16.81443024 2.17570472 16.13837814
17.10077286 1.84096050 16.29755592
17.43219757 1.56181455 16.47715378
17.69244385 1.28813350 16.75272560
17.90737343 0.98712450 17.04161644
18.15587997 0.69435501 17.31191063
18.42793083 0.40583053 17.56304359
18.75532341 0.14382720 17.77196693
19.09941673 -0.02893960 18.03730392
19.36199570 -0.21872813 18.37459564
19.60976791 -0.48663267 18.66824722
19.91965485 -0.73231345 18.92069435
20.24219894 -0.87568223 19.22774124
20.52833939 -0.96917874 19.58823776
20.73413467 -1.02204478 20.00409698
20.93381500 -1.07439160 20.42344475
21.15540314 -1.21083951 20.81398773
21.27494812 -1.35263968 21.24333572
21.28741455 -1.41781831 21.70713234
21.27977943 -1.34948480 22.16958427
21.33473778 -1.27775586 22.62777328
21.48010826 -1.34300363 23.06766319
21.71084404 -1.38653481 23.47145271
22.02501297 -1.38485837 23.81877708
22.36295700 -1.36119592 24.14244843
22.65649033 -1.27164531 24.49795151
22.95315170 -1.23385859 24.85839462
23.25907516 -1.29596591 25.20894623
23.57483864 -1.34413767 25.55205917
23.92710304 -1.40130818 25.85526848
24.29874611 -1.47591066 26.13205910
24.65032768 -1.54103267 26.43559074
24.95611000 -1.58347833 26.78793716
25.25089455 -1.58746171 27.15377617
25.52422905 -1.53540432 27.52952576
25.71502686 -1.46018934 27.95010185
25.85174370 -1.50941789 28.39500999
25.95164299 -1.59970021 28.84440041
25.92968369 -1.65214038 29.30797958
25.84582901 -1.70002031 29.76764870
25.80571938 -1.68733549 30.23426247
25.83939552 -1.67396128 30.70024109
25.90272713 -1.71111298 31.16409111
25.91848183 -1.67573082 31.63104439
25.91791916 -1.63090825 32.09793854
25.88003159 -1.64139891 32.56559372
25.72138405 -1.64945483 33.00526810
25.54944420 -1.59038222 33.43544388
25.40261269 -1.52017021 33.87480164
25.14887810 -1.50232601 34.26755524
24.83307266 -1.50516999 34.61548233
24.49905777 -1.47756314 34.94339371
24.15083504 -1.32896733 35.21797562
23.80509186 -1.14565790 35.47712326
23.48924637 -0.99165708 35.78788757
23.21373558 -0.78710097 36.10791016
22.94331932 -0.55869728 36.41679382
22.66505241 -0.39117688 36.75529099
22.34222221 -0.33155075 37.08864212
21.99710083 -0.27113608 37.39945221
21.62408257 -0.14048293 37.65004730
21.20137978 -0.04396236 37.83000183
20.78109550 0.07466158 37.99996185
20.39002228 0.19614510 38.22563934
20.07023811 0.30948022 38.54732895
19.76885796 0.42450270 38.88721848
19.43425369 0.41591933 39.21410751
19.15431404 0.38366967 39.58703232
18.89084244 0.45753151 39.96704865
18.57414246 0.50064051 40.30807114
18.30697060 0.43134955 40.68519974
18.12451363 0.37146997 41.11357117
17.92208099 0.33308509 41.53515244
17.63385963 0.34342128 41.90265274
17.33099556 0.42200899 42.25264359
17.01729584 0.53497231 42.58137512
16.70233154 0.62841874 42.91408539
16.43405914 0.75685793 43.27436829
16.19584274 0.97958505 43.61256027
16.00519180 1.19742489 43.98199081
15.90923500 1.44795179 44.36495209
15.79238605 1.72608018 44.72153091
15.53099918 1.91415918 45.05987930
15.27532959 2.07437563 45.41733170
15.15752602 2.30846214 45.80458832
15.07539940 2.51172328 46.21794128
14.93777180 2.58019495 46.66003036
14.79796696 2.53519201 47.10580444
14.59912586 2.45594764 47.52180862
14.32424068 2.46383095 47.90011597
14.08715630 2.59691453 48.28170013
13.85756302 2.78595209 48.64463043
13.61759281 2.92175674 49.02228928
13.39832592 2.98373532 49.43330383
13.22615242 2.97168636 49.86728287
13.10537243 2.82097793 50.29340363
12.98414326 2.66145563 50.71674347
12.89984608 2.50332999 51.14936066
12.78723145 2.34514523 51.57457733
12.57369804 2.20012593 51.96484756
12.39834213 2.01147509 52.35449219
12.37983513 1.79977262 52.77111816
12.42096424 1.48941243 53.11753082
12.39988708 1.07661927 53.33517838
12.40015030 0.62192261 53.44564819
12.49738693 0.17005852 53.52899933
12.58787632 -0.29023892 53.54354095
12.66028404 -0.75084281 53.59828949
12.77361202 -1.19758844 53.68780518
12.95464802 -1.60738111 53.82654190
13.15739250 -1.95441532 54.06769562
13.34400082 -2.27229929 54.35865021
13.44970798 -2.56925488 54.70608139
13.57236004 -2.82343841 55.08126068
13.68503571 -2.98989797 55.50450897
13.75941467 -3.03974247 55.96487808
13.78222179 -3.15536475 56.41883087
13.79016876 -3.20698333 56.88498306
13.75685310 -3.28326797 57.34710693
13.72173882 -3.30918169 57.81419754
13.68876648 -3.23009920 58.27560425
13.64756107 -3.12165856 58.73087311
13.63491726 -2.96398354 59.17275238
13.73583221 -2.81203771 59.60468674
13.78320217 -2.73945928 60.06480408
13.85361195 -2.78336191 60.52632141
13.84642410 -2.83903193 60.99209595
13.90450096 -2.94580698 61.44467926
13.92018223 -3.11363697 61.88261414
6.80872345 9.71015835 3.81150079
7.02159929 9.49503803 4.17030954
7.30747557 9.28891850 4.47991276
7.59725142 9.12800980 4.81069660
7.84371328 9.05086708 5.20221853
8.13821030 9.04984951 5.56604290
8.45402718 9.05251122 5.91299248
8.71745300 9.02577114 6.30097485
8.95538521 9.01332092 6.70587635
9.22336960 8.94518471 7.08235407
9.49691868 8.78418636 7.42847872
9.69780064 8.62708855 7.82136726
9.87218571 8.45679855 8.22209549
10.13331318 8.29982281 8.57684708
10.46809769 8.19265366 8.88847828
10.80216789 8.09149837 9.20275784
11.13386726 7.95579004 9.50506496
11.46680641 7.79770279 9.79600811
11.80181789 7.66538668 10.09768486
12.16652012 7.54047060 10.36616230
12.49264622 7.42119455 10.67895889
12.79826260 7.27843857 11.00377369
13.09363937 7.07433748 11.30486584
13.34440899 6.82128477 11.61099529
13.59907246 6.60579205 11.93959236
13.83276272 6.39370966 12.28606796
14.10752583 6.14539385 12.57237530
14.42777920 5.91343021 12.82617664
14.74932671 5.69404602 13.08928585
15.10165024 5.53510189 13.35519409
15.46574974 5.40230703 13.62083530
15.79420090 5.26313114 13.92531586
16.07435036 5.11710358 14.27292061
16.26900673 4.95166063 14.66470814
16.35916328 4.81373119 15.10414028
16.38296700 4.71500397 15.56249714
16.37038231 4.60083628 16.01787186
16.33020210 4.47174644 16.46763611
16.24338722 4.30032301 16.89484596
16.17675591 4.13564062 17.32738113
16.13129807 4.02947712 17.78276062
16.10665512 3.86139345 18.21904182
16.20935059 3.65489674 18.62539101
16.38867378 3.42591023 18.99354553
16.51772118 3.20211196 19.38360977
16.65160179 2.99539518 19.78207588
16.80004311 2.81435370 20.18717194
16.92197990 2.64190054 20.60583878
17.04521179 2.45009232 21.01631165
17.12073517 2.26151538 21.43923187
17.22722054 2.10229135 21.86509514
17.39016533 1.93343186 22.27013969
17.58559608 1.74042475 22.64976120
17.76695442 1.60701191 23.06013489
17.94637871 1.44562721 23.46035385
18.18361855 1.24160635 23.81106949
18.36828232 0.99133110 24.16089821
18.55347252 0.76074982 24.52281189
18.78654861 0.56066734 24.87770081
18.97950935 0.31914526 25.23105240
19.16947937 0.15368593 25.62624168
19.44952011 0.09218895 25.99635315
19.77385139 0.07175530 26.33562660
20.02347755 0.05318585 26.73191071
20.21976089 0.05290921 27.15864372
20.43259811 0.14307366 27.56690979
20.60321999 0.24712671 27.99130440
20.63188934 0.35112497 28.44682121
20.59671783 0.45941100 28.90248489
20.59048462 0.45950055 29.37112617
20.52240562 0.47998667 29.83443069
20.43339920 0.60395867 30.27813911
20.36245918 0.72805095 30.72564697
20.26828575 0.94524491 31.13035583
20.18924141 1.09513164 31.56743431
20.05502892 1.28669727 31.97298622
19.80525208 1.50786793 32.30227661
19.57570839 1.75846255 32.62582779
19.43062592 1.94286883 33.03095245
19.30831909 2.08891964 33.46041107
19.29887199 2.24461913 33.90205383
19.36148262 2.35120273 34.35502243
19.43651199 2.51309276 34.78903961
19.60536575 2.65273523 35.20368195
19.74632454 2.76675630 35.63642883
19.86149216 2.77145410 36.09103394
19.98311996 2.79931021 36.54364777
20.05607414 2.87708640 37.00092316
20.12018394 3.01298857 37.44541550
20.21477509 3.25795531 37.83361816
20.38912773 3.44060469 38.22824860
20.57587433 3.58504868 38.63455963
20.76185608 3.70346808 39.04949570
20.94357491 3.82062101 39.46670532
21.11433220 3.99854302 39.86601257
21.23047066 4.24769831 40.24646759
21.30912590 4.48959208 40.64138412
21.43197823 4.67994738 41.05261230
21.55739212 4.87220573 41.46242523
21.65976143 5.14716101 41.82819748
21.75884628 5.47830629 42.14619446
21.80731773 5.76573229 42.51324463
21.87905121 5.95657682 42.93574142
21.94688797 6.15237141 43.35717392
21.93323517 6.38966370 43.76152039
21.83563614 6.55919695 44.18705368
21.71174240 6.60376930 44.63708115
21.53319550 6.64647388 45.06928635
21.40827751 6.70077944 45.51858521
21.19296455 6.75472450 45.93061066
20.90585518 6.75797939 46.30228806
20.64560890 6.80723286 46.68964386
20.39900970 6.89866638 47.07898331
20.22702217 6.98269892 47.50710678
20.11708832 7.02220297 47.96201324
20.01385307 7.11103153 48.41140366
19.89086914 7.09993649 48.86344147
19.76812935 7.12158918 49.31576920
19.72310638 7.21069860 49.77384567
19.65802002 7.40574455 50.19526291
19.57251358 7.58094788 50.62244034
19.49918175 7.72408342 51.06396103
19.40905762 7.91541815 51.48320007
19.30745697 8.02733421 51.92720795
19.13445854 8.17368889 52.33785629
19.00935364 8.24651623 52.78320312
18.90226364 8.30027103 53.23727036
18.76905441 8.45924568 53.65778732
18.67794800 8.60698605 54.09357452
18.64424515 8.67393875 54.55633163
18.61922836 8.60868835 55.01987076
18.62184525 8.54315281 55.48508835
18.56834602 8.43618488 55.93861389
18.56635094 8.24725246 56.36762238
18.62908173 8.03982162 56.78414917
18.77582550 7.81204796 57.16751480
18.85961723 7.61109066 57.58276749
18.91064072 7.42833900 58.01249313
18.92574883 7.33359528 58.47159576
18.99305916 7.24890232 58.92819977
19.15066147 7.14035225 59.35683441
19.21466255 7.01516104 59.80321503
19.16962814 6.87664413 60.24942398
19.12412834 6.81583834 60.71237564
19.14499474 6.67896414 61.16022873
19.10730934 6.60066128 61.62061691
5.43041372 12.72137928 4.04273176
5.59469175 12.47240448 4.40288925
5.76256418 12.19401932 4.74060726
5.94500494 11.92415237 5.07847691
6.11122894 11.61729908 5.39281321
6.34047127 11.32970810 5.68367290
6.63388824 11.10717583 5.97481251
6.94336748 10.94581127 6.28889751
7.22976828 10.74835873 6.60229874
7.45746279 10.48376656 6.91601753
7.66753531 10.25701237 7.26889610
7.91100454 10.05142593 7.61373091
8.16186428 9.90263939 7.97854853
8.36896801 9.77284908 8.37796879
8.56105804 9.64404964 8.78532600
8.75106621 9.55214977 9.20484066
8.96607685 9.45259094 9.60970402
9.22514915 9.28940582 9.96253967
9.49822426 9.03924370 10.25140572
9.76707554 8.79443932 10.54824448
9.96090221 8.53161049 10.88423347
10.15551376 8.29168415 11.23561382
10.33736324 8.06861973 11.60443592
10.47244358 7.87050915 12.00664520
10.62818432 7.72996950 12.42716503
10.80133152 7.53480530 12.81658936
11.00769424 7.27938128 13.15231800
11.21120167 6.99134302 13.46247673
11.46531677 6.73443174 13.75862503
11.79985142 6.53925562 14.02448368
12.16762638 6.35305929 14.24937439
12.53585815 6.17187738 14.47739983
12.90594864 5.98163891 14.69409847
13.27150154 5.74860954 14.87408638
13.61917973 5.49447250 15.06202507
13.95225906 5.23000097 15.26116657
14.28268814 4.97770834 15.47921371
14.59933472 4.74655771 15.73698521
14.84776974 4.51329231 16.05928230
15.06538200 4.24180698 16.37287140
15.24501801 3.91455889 16.65719795
15.37015152 3.55098701 16.92619705
15.50511551 3.14842796 17.12593651
15.70892048 2.76529646 17.30335808
15.91347504 2.40420079 17.52185631
16.13521767 2.06836200 17.76106262
16.35221481 1.76521373 18.04319382
16.49739647 1.47903883 18.38635254
16.60598373 1.19199932 18.74163818
16.73946190 0.87049174 19.05459595
16.91711617 0.52088422 19.31332970
17.15775490 0.18647552 19.53394127
17.50363541 -0.10194595 19.66195679
17.88171959 -0.37464276 19.72148705
18.29495239 -0.57579350 19.80693436
18.70702934 -0.74544066 19.95260429
19.06228638 -1.00215077 20.11913300
19.37590027 -1.25751293 20.35277748
19.60214996 -1.49305248 20.68743134
19.77290344 -1.78970790 21.00794792
19.94694710 -2.07444525 21.33663177
20.09817123 -2.29611087 21.72231865
20.19272614 -2.50052691 22.13382149
20.31699371 -2.72772408 22.52264404
20.52784538 -2.92329121 22.89283180
20.73524475 -3.09647584 23.27690125
20.94682693 -3.29503965 23.64641380
21.14759445 -3.46453500 24.03522682
21.30561829 -3.55113602 24.46775055
21.46553993 -3.51211143 24.90611649
21.67799187 -3.48788023 25.32133865
21.93905640 -3.53208852 25.70945740
22.25119591 -3.59746885 26.05270576
22.54425240 -3.75418639 26.38171577
22.81358719 -3.92139840 26.72722626
23.09603882 -3.98218799 27.09574890
23.31639290 -4.04747581 27.50309944
23.46602058 -4.19145107 27.92435837
23.58257866 -4.35945988 28.34744263
23.65042686 -4.47212076 28.79592705
23.68381119 -4.45609045 29.26320076
23.70460701 -4.42486954 29.73073196
23.65757751 -4.38630915 30.19502831
23.50886345 -4.26280880 30.62150955
23.36754990 -4.16159296 31.05499077
23.30727386 -4.13378763 31.52004433
23.25934982 -4.03902197 31.97523689
23.13570786 -3.86292148 32.39077377
23.00988770 -3.73189187 32.82110977
22.93161583 -3.60695863 33.26649475
22.81301117 -3.45083427 33.69343185
22.68490791 -3.35586619 34.13431168
22.49924088 -3.27381563 34.55528641
22.31296921 -3.18130207 34.97434998
22.13325119 -3.08767867 35.39625931
21.84081268 -2.98172045 35.74625015
21.50662422 -2.84533691 36.04558563
21.23419380 -2.69782519 36.39533615
20.94582176 -2.59804940 36.74926376
20.61198235 -2.52171373 37.07049561
20.30108452 -2.43352580 37.41129684
19.96830177 -2.29763222 37.71281052
19.60781860 -2.22303224 38.00107574
19.24550247 -2.16045475 38.29086685
18.90011978 -2.10350204 38.60062408
18.55814552 -2.04433584 38.91365051
18.26291084 -1.87784576 39.23569107
18.10808945 -1.69102263 39.63529205
18.08437538 -1.45975780 40.04100418
18.10659027 -1.18847024 40.42399216
18.10201263 -0.88889122 40.78467178
18.05871773 -0.59891999 41.15001297
17.92337799 -0.39725888 41.54966736
17.75278473 -0.27278513 41.96816635
17.57167053 -0.23412089 42.39836121
17.33089447 -0.23883158 42.80180359
17.09481430 -0.16865116 43.19989777
16.92468834 -0.05828873 43.62250519
16.81002426 0.09521744 44.04942703
16.64146423 0.33701739 44.41259384
16.45863152 0.56829667 44.77621841
16.31631660 0.73346096 45.19189835
16.15489006 0.92784202 45.58575439
16.05584335 1.21564972 45.94129562
15.95772934 1.49815619 46.30125427
15.78057766 1.72678888 46.67146683
15.64701462 1.93835557 47.06772232
15.58620834 2.05663943 47.35102844
7.03928947 11.13376904 2.96291208
7.27884865 10.98044682 3.33611536
7.54873562 10.79967213 3.67489719
7.79324293 10.65041733 4.04463005
8.00272274 10.51265717 4.44166565
8.24790859 10.42517090 4.83143377
8.49000931 10.33344555 5.22192860
8.69687462 10.14312458 5.59770060
8.93210506 9.93697166 5.94671679
9.18171406 9.76433849 6.30436993
9.36568642 9.58262157 6.69630671
9.54954624 9.39249516 7.08432341
9.72677612 9.20597935 7.47698450
9.90317249 8.99616718 7.85789537
10.16644287 8.84433079 8.21266460
10.49805450 8.74906254 8.53104687
10.80499172 8.63465309 8.86607742
11.07519341 8.52048016 9.23312759
11.36131191 8.38178253 9.57882881
11.69181252 8.22668171 9.87309361
12.05787182 8.07306671 10.12455559
12.44505978 7.94244099 10.35535526
12.81797981 7.83492470 10.61794662
13.11894608 7.73737097 10.96418190
13.39686012 7.64017487 11.33024502
13.69075966 7.53057146 11.68014526
14.02675152 7.44363594 11.99564552
14.40576077 7.31814671 12.24039650
14.78188992 7.12548113 12.44596767
15.12765694 6.93081570 12.69603157
15.40454674 6.75231218 13.02939892
15.65833282 6.64144897 13.40724754
15.92149639 6.61913586 13.79561901
16.15053940 6.55309439 14.19838047
16.32865334 6.41869640 14.61173058
16.43254852 6.22132158 15.02264118
16.52947044 6.03561735 15.44015980
16.66239357 5.92341995 15.87673569
16.72755623 5.81638527 16.32826614
16.78138161 5.75167131 16.78932953
16.82608032 5.73183298 17.25547981
16.79891205 5.74181414 17.72435379
16.73601532 5.78634501 18.18768692
16.65387726 5.79252243 18.64931488
16.58311844 5.75335598 19.11223984
16.52445793 5.64605331 19.56376648
16.48092270 5.50510693 20.00922585
16.41611099 5.38762999 20.45914268
16.26890755 5.27941227 20.89077377
16.12161827 5.14045382 21.31248283
16.10457420 4.95070648 21.73973656
16.14169502 4.75135851 22.16336060
6.21387577 10.80198956 4.67194748
6.42658901 10.57783890 5.02394199
6.66597080 10.38342381 5.37496901
6.97361851 10.23365402 5.69641781
7.30054712 10.05200863 5.97617817
7.59749079 9.83013821 6.26074076
7.80822897 9.64337826 6.63612652
8.01269531 9.52750874 7.04130888
8.24417019 9.41958046 7.43458748
8.51052284 9.30686760 7.80339289
8.79206848 9.18266773 8.15677452
9.08153152 8.97138691 8.45875263
9.40135765 8.73274326 8.70701885
9.72506618 8.51053047 8.96490288
10.06957817 8.35304356 9.24139309
10.43445778 8.21948051 9.50528908
10.77656841 8.07508183 9.79213810
11.12080193 7.95384264 10.08738232
11.51151085 7.83811092 10.32026863
11.88807774 7.71549416 10.57085228
12.25070477 7.58614445 10.83938026
12.60870266 7.43954897 11.10513878
12.95166206 7.29666138 11.39268589
13.25326633 7.14891338 11.71863079
13.52734280 6.95040894 12.04281902
13.83088398 6.75738382 12.34431171
14.11736488 6.60281134 12.68301964
14.38116646 6.37426281 12.99360275
14.64005089 6.07182312 13.24329376
14.92569065 5.80666924 13.50432777
15.17481899 5.58971357 13.83577061
15.40088367 5.36000204 14.17636776
15.62531281 5.07541752 14.47420025
15.82470036 4.75281906 14.75152111
16.03447914 4.42411041 15.01379013
16.21725655 4.11261845 15.31318283
16.36441612 3.88809872 15.69597912
16.41976547 3.75920010 16.14169693
16.45709229 3.63017201 16.59025002
16.52984810 3.45257282 17.01871490
16.62901878 3.29126859 17.44711876
16.79243469 3.16903973 17.87038422
16.89389420 3.02533388 18.30388069
16.97666168 2.88992000 18.74479294
17.10539246 2.69991493 19.15187836
17.25863457 2.38633919 19.46285439
17.46016121 2.04955053 19.72098351
17.67282677 1.77615464 20.03642273
17.82287025 1.58563304 20.43639183
17.86560249 1.40769291 20.86817169
17.81923485 1.23023152 21.29993057
17.80470276 1.11976826 21.75378799
17.84680557 1.03009593 22.21284485
17.88502121 0.91482443 22.66676331
17.91424751 0.72797215 23.09477806
17.97447395 0.49465612 23.49684906
18.12708282 0.30904466 23.89988327
18.26773643 0.12830868 24.30904007
18.37381172 -0.11849286 24.69356728
18.47995567 -0.39326310 25.05959320
18.65776062 -0.68970269 25.37590218
18.95999146 -0.92961240 25.64109802
19.28912354 -1.10564458 25.92601395
19.63248062 -1.22099495 26.22479630
19.99015999 -1.23332393 26.52784157
20.30225563 -1.19795024 26.87662125
20.59480476 -1.11143947 27.23379135
20.85540199 -1.12655377 27.62224960
21.02746201 -1.17562151 28.05557823
21.13953781 -1.11313593 28.50632095
21.27531052 -1.03382075 28.94905853
21.35906219 -0.94806212 29.40304756
21.48498154 -0.90597212 29.85311127
21.58249283 -0.93795103 30.31070137
21.57141304 -1.01584494 30.77310181
21.53617477 -1.10062969 31.23383141
21.43870544 -1.09871650 31.69219589
21.29492188 -1.06951547 32.13844299
21.17124939 -0.93478161 32.56959534
20.99505806 -0.71678746 32.94578934
20.84145164 -0.57661152 33.36582565
20.69264412 -0.38027468 33.76512146
20.49653435 -0.23545982 34.16608810
20.35299301 -0.12272332 34.59851456
20.17620850 0.03040832 35.00535583
19.96325874 0.16926253 35.40050507
19.78699875 0.30357465 35.81461334
19.56369019 0.35857049 36.22316360
19.27275848 0.42234388 36.58570480
18.94945717 0.52780235 36.90984726
18.61409187 0.58817637 37.23275375
18.23377419 0.57875764 37.50750351
17.86573792 0.61683273 37.79571915
17.58995819 0.64191145 38.17359924
17.33905983 0.66006947 38.57052612
17.14388084 0.69794285 38.99574280
16.95136261 0.80225807 39.41112900
16.76695061 0.89394140 39.83340073
16.56436157 0.98802698 40.24673843
16.41795921 1.13338184 40.66832352
16.27728081 1.22700334 41.10587311
16.05384827 1.23422539 41.51814651
15.88204479 1.27389860 41.95246506
15.76359558 1.35673070 42.39935684
15.60174274 1.51470482 42.81038666
15.44670963 1.62780190 43.23861313
15.32876492 1.71235931 43.68529129
15.28866863 1.87045014 44.12498856
15.26090622 1.94239438 44.58735657
15.18804359 2.06568718 45.03320694
15.03208256 2.28385901 45.41785049
14.88466549 2.43496704 45.83607101
14.81690407 2.55140042 46.28585434
14.72766209 2.68247581 46.72751999
14.56935406 2.89659548 47.11354065
14.39133835 3.01716614 47.52906036
14.13425732 3.02651286 47.91976929
13.80486202 2.93317461 48.24031067
13.51834774 2.89279628 48.60832977
13.29136467 2.91338706 49.01893616
13.09453011 2.87533402 49.44342041
12.86979198 2.92085814 49.85165405
12.71603584 3.06671453 50.27000809
12.55717754 3.20220518 50.69057465
12.32556438 3.32417536 51.08037186
12.12930202 3.43111467 51.49288177
11.96525192 3.41394258 51.93096924
11.73413372 3.31496787 52.32682037
11.53127384 3.14509106 52.71390533
11.42696953 2.89367819 53.09543991
11.30639839 2.57108164 53.41366577
11.24628735 2.18607354 53.67486954
11.16740322 1.84445691 53.98624039
11.06610012 1.56170821 54.34674454
10.96491909 1.39038932 54.77113342
10.87928581 1.22697473 55.20280838
10.84862423 0.94528449 55.57469177
10.90996838 0.59359688 55.87860489
10.96564007 0.20484360 56.13634109
11.04353714 -0.15856995 56.42272186
11.18521881 -0.43506348 56.77400208
11.30298328 -0.73628014 57.11411667
11.35691357 -0.98793596 57.50553513
11.38935375 -1.13829935 57.94865036
11.42873287 -1.22522008 58.40862656
11.40739346 -1.33280265 58.86507797
11.48723888 -1.45271742 59.31034851
11.63930416 -1.65809739 59.70365143
11.73203182 -1.81171262 60.13652802
11.90574169 -1.95571542 60.54753494
12.03491402 -2.02847266 60.99160385
12.12984848 -2.01827765 61.45134354
12.13938522 -2.07008004 61.91684723
12.14141941 -2.17430782 62.37496185
12.17491531 -2.20982766 62.84169769
12.17812920 -2.21975231 62.99803543
7.22926998 7.77756453 64.87465668
7.33406591 7.91323376 64.43793488
7.50477028 8.04676819 64.02162170
7.71055651 8.13714790 63.61093521
7.93059111 8.10728931 63.19785690
8.15146732 8.02844238 62.79061508
8.37010002 7.92579889 62.38777924
8.55308819 7.85116482 61.96351624
8.62087440 7.83593369 61.50061035
8.66777802 7.78791571 61.03696442
8.79226589 7.67168236 60.59963989
8.92231941 7.47502089 60.19436264
9.06295681 7.29002333 59.78796768
9.22577763 7.19495535 59.35785675
9.38989735 7.18036652 58.91889572
9.59605122 7.19769430 58.49757385
9.76238060 7.21692324 58.06113052
9.90525818 7.22220898 57.61502457
10.12693214 7.13465595 57.21177292
10.32528019 7.02726507 56.80142212
10.41878891 6.95457697 56.34774780
10.40422630 6.84554434 55.89245987
10.32316589 6.78755951 55.43596268
10.22774506 6.79536057 54.97597504
10.14127636 6.72539377 54.52067566
10.06065369 6.61009169 54.07230759
9.97183800 6.50513124 53.62287521
9.96506691 6.43336391 53.16140366
10.02411175 6.36231613 52.70114136
10.09396553 6.26447010 52.24710846
10.24151897 6.20000267 51.80677414
10.47039890 6.16690540 51.39823151
10.72502518 6.09781504 51.01003265
10.98401260 5.96564817 50.64122772
11.22976875 5.81240988 50.27154922
11.50043011 5.73086977 49.89949036
11.75433731 5.67024231 49.51198196
12.01307297 5.55871105 49.13903809
12.33165169 5.40411711 48.83108902
12.62541580 5.27056456 48.49264145
12.85815430 5.17191744 48.09764862
13.09650230 5.03494120 47.71782303
13.40131950 4.91732216 47.38063049
13.72718334 4.87572575 47.04582977
13.98505974 4.89682674 46.65645981
14.10741615 4.91255283 46.20477295
14.22272015 4.96769428 45.75517273
14.35159206 5.02841187 45.30908966
14.47930813 5.05776596 44.85867310
14.70050526 5.07447577 44.44606781
15.00861549 4.99311638 44.10430908
15.30241489 4.89759827 43.75405884
15.51389980 4.79257488 43.34964752
15.72951221 4.66041422 42.95458221
15.96936607 4.60560369 42.55507278
16.25522041 4.57562065 42.18569565
16.52633667 4.50367546 41.81207657
16.68958092 4.43694639 41.37722397
16.86275864 4.39413881 40.94328690
17.11921692 4.39211988 40.55123901
17.38880539 4.39188814 40.16744614
17.57001495 4.35160112 39.73756790
17.74600983 4.34786463 39.30381775
17.98252678 4.32377625 38.89972687
18.24472427 4.20671225 38.52884293
18.56674576 4.12307215 38.20018005
18.93801498 4.12219810 37.91269302
19.28552437 4.13437271 37.59875870
19.60000420 4.17386866 37.25215912
19.94700432 4.18169880 36.93737793
20.26586533 4.09498262 36.60563278
20.46419334 4.00422430 36.19271088
20.64854050 3.95316887 35.76515961
20.87871742 3.86610031 35.36553192
21.15558052 3.77195597 35.00035858
21.48704910 3.73518372 34.66947174
21.78243256 3.65351725 34.31608963
21.97698212 3.46046019 33.93694687
22.07019424 3.24518275 33.53059387
22.12475204 3.13892984 33.07913208
22.19972420 3.09662366 32.61760330
22.26316071 3.08432794 32.15377426
22.30386734 3.12272072 31.68723679
22.29959297 3.12440085 31.21882629
22.28072929 3.16035414 30.75282478
22.28913498 3.21161604 30.28672791
22.28464699 3.16201878 29.82033730
22.27126884 3.08491445 29.35724068
22.18361664 3.09155607 28.89823532
22.09213066 3.20211053 28.45254135
21.99672508 3.30007720 28.00535774
21.86789513 3.31024647 27.55418205
21.72576714 3.31881332 27.10717583
21.62232208 3.37207556 26.65422821
21.58658981 3.44866800 26.19202614
21.49917603 3.57077193 25.74786949
21.34315300 3.66191816 25.31606674
21.16441727 3.63601518 24.88311195
21.04389954 3.60695338 24.43179703
21.03196526 3.60350728 23.96320343
21.04238510 3.50427651 23.50635147
20.98308372 3.33323169 23.07321358
20.89905739 3.22054768 22.62617111
20.86291885 3.24835634 22.16135979
20.77325249 3.35443687 21.71529198
20.54065704 3.42287993 21.31471443
20.30538750 3.51282167 20.92052650
20.07251740 3.59939599 20.52412605
19.82941055 3.68411040 20.13302040
19.55419159 3.80243993 19.77449036
19.23752213 3.93592215 19.45516968
18.89038849 4.06947708 19.17204857
18.50397301 4.20626116 18.94357491
18.16145134 4.44090796 18.72639465
17.85829544 4.69402027 18.47382545
17.61027145 4.91195202 18.14113998
17.43663979 5.08382177 17.74124146
17.33842468 5.22212124 17.30391121
17.22568321 5.37185574 16.87452126
17.12666512 5.50907755 16.43848038
17.08202934 5.68765068 16.00756264
16.96991730 5.89453077 15.60180759
16.82057381 6.10041904 15.20693016
16.64007759 6.29987526 14.82260418
16.37940407 6.46753359 14.47058678
16.09160233 6.63865471 14.14097500
15.80579758 6.85414410 13.83803749
15.50731373 7.11142254 13.58198643
15.19946957 7.30311537 13.28715134
14.90941715 7.39245081 12.92901039
14.59100437 7.49658871 12.60298538
14.28042030 7.69194508 12.31241798
14.03786850 7.94300842 11.99790478
13.76901340 8.20496845 11.71701336
13.46533012 8.47102642 11.47652626
13.20561123 8.71138859 11.17095089
12.95817757 8.90419865 10.82166862
12.67271805 9.10492229 10.50731087
12.38849545 9.31714153 10.19916344
12.07894325 9.50024319 9.89756870
11.76609612 9.64653683 9.58005714
11.50733376 9.79764748 9.21863651
11.26893425 9.94796848 8.84279537
11.01844025 10.09992695 8.47567558
