-20.12026596 -17.80506706 28.14316177
-20.03231621 -18.08828735 28.50394821
-19.92452240 -18.27087593 28.92177582
-19.80943871 -18.41381264 29.35342979
-19.67785645 -18.49626160 29.79507637
-19.58658218 -18.59274483 30.24376106
-19.46504593 -18.78770447 30.65269279
-19.29911232 -19.01959610 31.02614975
-19.10317802 -19.19337845 31.41371918
-18.88889122 -19.24494553 31.82786942
-18.65768623 -19.24118423 32.23678207
-18.44495964 -19.25579071 32.65461731
-18.19861031 -19.32822227 33.04469299
-17.90793419 -19.39585114 33.40647888
-17.63668251 -19.51251602 33.76857376
-17.35238075 -19.70964432 34.08642960
-17.09241104 -19.90127945 34.42653275
-16.94465446 -20.09725380 34.82485580
-16.83535194 -20.27121353 35.24671555
-16.70598030 -20.41097832 35.67629623
-16.56639290 -20.54859924 36.10313034
-16.37792397 -20.64026451 36.52260208
-16.18098259 -20.72690582 36.93950272
-16.03477859 -20.79733086 37.37847900
-15.92564392 -20.80620384 37.83547211
-15.82000065 -20.81475449 38.29333115
-15.67724419 -20.85469246 38.73829269
-15.51239014 -20.88482857 39.17646790
-15.37940025 -20.94112015 39.62196732
-15.20582771 -21.00907707 40.05093765
-14.96127510 -21.01907539 40.45196915
-14.74125290 -21.06329536 40.86343765
-14.50259972 -21.18427849 41.24625778
-14.26550674 -21.33056259 41.62216187
-14.09683132 -21.41180420 42.05209351
-13.98813725 -21.40526581 42.50756836
-13.91596508 -21.44124222 42.96808624
-13.87138081 -21.58115959 43.41350937
-13.84525967 -21.73121643 43.85772324
-13.72511673 -21.83592796 44.29780197
-13.58160686 -21.89615440 44.74047089
-13.44623184 -22.00954819 45.17383575
-13.28448105 -22.17885971 45.58130264
-13.06892204 -22.37946510 45.94424057
-12.85290337 -22.65467262 46.25561142
-12.68788433 -22.94263268 46.58784866
-12.55097580 -23.23621559 46.92728043
-12.47926521 -23.51947021 47.29338455
-12.42626190 -23.77369499 47.68493652
-12.40680408 -23.98251152 48.10260773
-12.40437222 -24.19364929 48.52000427
-12.33273125 -24.39902115 48.93372345
-12.25778294 -24.52732086 49.37911606
-12.16500664 -24.60124588 49.83198547
-12.09572792 -24.66918755 50.28913879
-12.12494755 -24.78626823 50.74309921
-12.16599560 -24.93370438 51.18721008
-12.27075863 -25.10396576 51.61017227
-12.43071365 -25.29633904 52.00763321
-12.59667301 -25.51667404 52.38781738
-12.73846722 -25.72466850 52.78329849
-6.23166943 20.16615295 -9.58196735
-6.26060677 19.88286972 -9.20839787
-6.32613134 19.58242798 -8.85526562
-6.40224600 19.29055214 -8.49691105
-6.48066282 19.02924347 -8.11558342
-6.62126160 18.79664421 -7.73246002
-6.74413109 18.55698204 -7.34782648
-6.84819508 18.29421997 -6.97242260
-6.97486734 18.04394913 -6.59549856
-7.12058115 17.77025032 -6.24317169
-7.26054287 17.52918243 -5.86775112
-7.34513140 17.35351372 -5.44091988
-7.34605885 17.16281319 -5.01208878
-7.37032938 17.02375984 -4.56681824
-7.47858095 16.93745232 -4.11808395
-7.60278845 16.83270454 -3.67707634
-7.68774271 16.67700005 -3.24310088
-7.76099014 16.43615532 -2.84745073
-7.83191633 16.17870331 -2.46130300
-7.91653109 15.91472435 -2.08312273
-7.96991968 15.66338730 -1.69290161
-8.00694370 15.46122456 -1.27135372
-8.04591942 15.22565365 -0.86832374
-8.04937935 14.95943356 -0.48113108
-8.08392811 14.72809029 -0.07406738
-8.17210770 14.49449539 0.32266352
-8.24435425 14.21235752 0.69016069
-8.29858208 13.98698330 1.09563816
-8.40626335 13.78024197 1.50174165
-8.57065201 13.49765587 1.83781016
-8.80089378 13.23400116 2.15021873
-9.02633476 13.00654984 2.49356222
-9.23979282 12.75618172 2.82825994
-9.40419102 12.48745537 3.17406535
-9.56996918 12.26265526 3.54900289
-9.80802250 12.03281307 3.88122678
-10.05483818 11.74156380 4.15478182
-10.35590172 11.48588657 4.40612936
-10.65823746 11.29357624 4.70785618
-10.85057354 11.14157963 5.10566521
-10.97310925 11.05242443 5.55018902
-11.12281418 10.95676708 5.98439026
-11.28903389 10.86398506 6.41339302
-11.49371624 10.78840542 6.82820606
-11.72735596 10.71019363 7.22806215
-11.96070957 10.61591053 7.62416029
-12.17650795 10.52868271 8.03088379
-6.29143381 15.29778290 1.74581146
-6.21578836 14.83693027 1.79796600
-6.19444990 14.37061024 1.84675956
-6.23326397 13.90958118 1.92609465
-6.26837778 13.44781876 2.00114822
-6.32419109 12.98345947 2.03983903
-6.35642385 12.52810001 2.13924265
-6.36022711 12.07191086 2.24592972
-6.41287947 11.61240768 2.32796717
-6.50840664 11.15650654 2.37852788
-6.62072277 10.70042133 2.36807203
-6.69525814 10.23715305 2.38277507
-6.75564146 9.77273083 2.42136192
-6.81972265 9.30940151 2.46648908
-6.93400669 8.86294556 2.55114961
-7.14144897 8.47119808 2.70241141
-42.03281403 -7.29303217 24.42986870
-41.89987564 -7.29736757 24.51238823
-41.47494507 -7.29045630 24.70667267
-41.02843094 -7.22105122 24.83466339
-40.57863617 -7.18566942 24.96106148
-40.12850571 -7.13564825 25.07849121
-39.69313431 -6.97080231 25.11850357
-39.28351974 -6.74436951 25.07881927
-38.87708664 -6.50949097 25.07119751
-38.43857193 -6.34568071 25.06066704
-37.97926331 -6.24907207 25.04800606
-37.51252747 -6.19910526 25.04733086
-37.04490280 -6.15688372 25.03818703
-36.57806396 -6.13007021 25.07435799
-36.10949326 -6.12967682 25.08779144
-35.64646149 -6.08574438 25.13159943
-35.18772125 -6.06424618 25.22512436
-34.72323608 -6.07588482 25.29456329
-34.26237869 -6.03205156 25.37259483
-33.79717636 -6.00061417 25.42010307
-33.33312988 -5.95439339 25.46195030
-32.87335587 -5.89358902 25.53135681
-32.40503311 -5.88150692 25.55451202
-31.93712234 -5.91055393 25.56055832
-31.47031403 -5.93619823 25.59938049
-31.00515366 -5.93435478 25.55330276
-30.55897903 -5.93956327 25.40654182
-30.10475540 -5.98751068 25.30860329
-29.63882637 -6.03625870 25.31511688
-29.17231560 -6.01684999 25.36803055
-28.70578575 -6.04514313 25.37577820
-28.23939896 -6.05188894 25.34607315
-27.78022957 -5.97350883 25.28959084
-27.31921196 -5.90152311 25.24741936
-26.85744286 -5.85888052 25.18739891
-26.42617226 -5.81714296 25.00763702
-26.03093147 -5.75633812 24.76133347
-25.61395645 -5.67428398 24.56731606
-25.18361282 -5.62314892 24.39189529
-24.81687546 -5.63566780 24.10111618
-24.50571632 -5.58798742 23.75464821
-24.20817566 -5.55297136 23.39589500
-23.99184036 -5.62738943 22.98873711
-23.83339119 -5.63661098 22.54962730
-23.68647957 -5.58114195 22.10734177
-23.60557556 -5.54934263 21.64588356
-23.49846458 -5.50560856 21.19184875
-23.30720329 -5.39320660 20.77935600
-23.06599808 -5.24280596 20.40562439
-22.76535225 -5.06454563 20.09462166
-22.42700195 -4.83421230 19.86423492
-22.03882980 -4.67514420 19.65859795
-21.65451050 -4.51570177 19.44670105
-21.29071617 -4.34787226 19.20526505
-20.93579865 -4.21225023 18.93028831
-20.62783051 -3.98311710 18.66126442
-20.30856323 -3.74326611 18.41520882
-20.01390076 -3.53056073 18.12055969
-19.75527191 -3.31702280 17.79180717
-19.44699287 -3.09831548 17.51379204
-19.17055893 -2.81408858 17.26542282
-18.90874290 -2.51163840 17.02093506
-18.65877533 -2.20653772 16.76838875
-18.43363571 -1.89909756 16.49451447
-18.19610786 -1.59157467 16.23103333
-17.97719574 -1.27352107 15.96356392
-17.71508598 -0.98225588 15.70569229
-17.40469360 -0.74903899 15.44303036
-17.08045578 -0.58643037 15.14451694
-16.79262543 -0.37363529 14.84382725
-16.57145500 -0.14530243 14.50037289
-16.32609749 0.06756857 14.16380692
-16.06980705 0.30014277 13.84722042
-15.81941128 0.52058238 13.51671505
-15.61386776 0.79920071 13.20300865
-15.45935726 1.08880508 12.86775112
-15.27435875 1.29148400 12.48757553
-15.07706261 1.49251664 12.11274338
-14.95250988 1.77977216 11.76575089
-14.89461613 2.14076209 11.47278309
-14.83372402 2.53312564 11.22146797
-14.74325180 2.88909578 10.93011951
-14.65606117 3.22652316 10.61586857
-14.56278229 3.58547091 10.32876492
-14.38186169 3.91298676 10.04637814
-14.10548401 4.21012688 9.81482220
-13.78935528 4.47750521 9.59591389
-13.46949863 4.68718767 9.32334614
-13.13010120 4.93344164 9.11690712
-12.81486320 5.23751497 8.94784069
-12.53421307 5.58222532 8.79978180
-12.25201416 5.94414091 8.69987583
-11.96818638 6.28637981 8.55027485
-11.66624260 6.62128544 8.42599869
-11.37446499 6.98132133 8.35580826
-11.14500999 7.38529634 8.28671551
-10.92865372 7.80132627 8.25791645
-10.70923138 8.21515369 8.22319031
-10.49887943 8.62826061 8.14654636
-10.29815769 9.04090786 8.04499435
-8.78431129 10.45840931 2.36388850
-8.58288479 10.06696892 2.52630258
-8.42569923 9.64032650 2.64344025
-8.31868839 9.19090366 2.72734094
-8.29149151 8.72548866 2.77679729
-8.36648178 8.26572990 2.83179760
-8.44638538 7.80538082 2.87389326
-8.50513172 7.33923149 2.87968612
-8.54792690 6.87204790 2.89600015
-8.61468697 6.41282034 2.95973778
-8.68395424 5.95401144 3.02425051
-8.74134350 5.48994303 3.06357408
-8.84626389 5.05184603 3.18853045
-8.98688221 4.66553736 3.41459990
-9.15948200 4.30498600 3.66180491
-9.32382584 3.92995644 3.89199519
-9.41638088 3.54884672 4.14700651
-9.47560692 3.15194869 4.38827801
-9.62423229 2.74183154 4.55976248
-9.78769398 2.34852529 4.75555658
-9.89514637 1.94653523 4.97361326
-10.00953770 1.51354754 5.10993338
-10.10026646 1.06173134 5.19812298
-10.17897129 0.61479795 5.31869221
-10.31442833 0.20724536 5.50563717
-10.40608215 -0.17251609 5.76365328
-10.41359711 -0.49923134 6.09798193
-10.44290161 -0.75276357 6.49195528
-10.49592876 -1.04943454 6.85026646
-10.54074383 -1.39827359 7.16201544
-10.60995388 -1.77174568 7.43742085
-10.75282097 -2.13483691 7.69647551
-10.93530464 -2.48327708 7.95297670
-11.11355686 -2.84674644 8.19151974
-11.25076389 -3.21598339 8.44598866
-11.35015488 -3.53104782 8.77601051
-11.49312019 -3.71988916 9.18010426
-11.59013844 -3.88962817 9.60463905
-11.61957359 -4.08159399 10.03248787
-11.63632107 -4.29927397 10.44773483
-11.71952057 -4.54891825 10.83359241
-11.81193352 -4.81189299 11.20892525
-11.84918308 -5.06196594 11.60422325
-11.95032787 -5.24699640 12.02321148
-12.01975155 -5.39868402 12.46064568
-12.03413773 -5.53466463 12.91013050
-12.02418232 -5.69978762 13.34865570
-11.98011494 -5.92194605 13.76029491
-11.89302635 -6.16751051 14.15069485
-11.82176495 -6.40199709 14.55146408
-11.74809551 -6.67397118 14.92681503
-11.72202015 -7.03061533 15.22892952
-11.82044601 -7.41309690 15.48143291
-11.92611122 -7.78990555 15.74136734
-12.10148239 -8.12683964 16.01697731
-12.20069599 -8.37684727 16.17666054
-6.77854681 18.66535759 -0.13789397
-6.76326370 18.19959641 -0.07752654
-6.73510075 17.73790741 0.00499217
-6.65382385 17.28420448 0.09134907
-6.54501390 16.83948326 0.19468941
-6.45521927 16.42728996 0.39770734
-6.32740593 16.06655121 0.66942424
-6.21688271 15.69985580 0.93978018
-6.18305635 15.28098392 1.14643812
-6.18768167 14.82443619 1.25482965
-6.19524240 14.36417198 1.34789598
-6.16047716 13.91383457 1.47644353
-6.15117645 13.46321011 1.60553944
-6.16152573 13.00702572 1.71605206
-6.19767046 12.54577160 1.78849721
-6.24053001 12.08495140 1.86178768
-6.27971411 11.63862228 1.99894750
-6.39805508 11.20000935 2.11381340
-6.56274033 10.77105618 2.20908976
-6.67016840 10.33413696 2.33674002
-6.77796173 9.89758778 2.46532440
-6.93143988 9.47441578 2.59914279
-7.11417818 9.07523441 2.76117897
-7.40341663 8.77989483 2.97925210
-7.70801210 8.54492855 3.24824262
-7.98576355 8.33516312 3.56324458
-8.26657486 8.17074394 3.90224218
-8.52852249 8.01275158 4.25871372
-8.76488686 7.88338566 4.64320087
-9.04845428 7.80586767 5.00798464
-9.35485744 7.73084068 5.35569096
-9.68216515 7.70571661 5.68806028
-10.04364681 7.73398447 5.98688078
-10.34952927 7.77703047 6.33861923
-10.63098907 7.81558704 6.71198797
-10.88936901 7.78895521 7.10152388
-11.08025074 7.77040958 7.52987623
-11.28199768 7.81287193 7.95173120
-11.45260334 7.90240049 8.37875080
-11.58660889 8.03801060 8.80797195
-11.91340923 -17.61883163 51.68736267
-12.10087013 -17.28346252 51.41709518
-12.26033497 -16.98722458 51.09231186
-12.39428997 -16.80371666 50.68392563
-12.58260250 -16.77136421 50.25693512
-12.79320240 -16.80674744 49.83833694
-12.98455143 -16.83720398 49.41033554
-13.10472298 -16.90379715 48.96267700
-13.15153790 -16.99412537 48.50390244
-13.17886543 -17.01315117 48.03641891
-13.22259045 -17.05010986 47.57229614
-13.31641006 -17.09529114 47.11608505
-13.41116714 -17.03113937 46.66108704
-13.49492645 -16.92125893 46.21196365
-13.53644943 -16.82345009 45.75551605
-13.57271099 -16.80963326 45.28971481
-13.62528419 -16.83337212 44.82403564
-13.66506386 -16.87583733 44.35865784
-13.73286533 -16.93906784 43.89814758
-13.85377121 -16.92373276 43.44622421
-14.00415039 -16.89040756 43.00277328
-14.17551613 -16.86451912 42.56695557
-14.41541100 -16.83483696 42.16460419
-14.62082005 -16.80979729 41.74497986
-14.78014946 -16.76750755 41.30501938
-15.00951672 -16.79365349 40.89871216
-15.30606556 -16.82818031 40.53762817
-15.59112740 -16.81927490 40.16490173
-15.86416626 -16.80890274 39.78298950
-16.12396431 -16.71572113 39.40511322
-16.41047096 -16.59800529 39.05495453
-16.70237350 -16.56642914 38.69149399
-16.95959282 -16.52382088 38.30217361
-17.20458984 -16.36475563 37.93643570
-17.36343002 -16.18344688 37.53511047
-17.55348969 -16.02996254 37.13705444
-17.84454727 -15.91473770 36.78783798
-18.13774681 -15.82232571 36.43295288
-18.46574020 -15.71099281 36.11819077
-18.79939842 -15.60104370 35.80841827
-19.08923721 -15.47538567 35.46059799
-19.39519501 -15.41932774 35.11153412
-19.67226028 -15.41802692 34.73303223
-19.91694450 -15.45768452 34.33566284
-20.18305016 -15.48221874 33.95216370
-20.41219902 -15.41871643 33.54840851
-20.63098335 -15.39237118 33.13491821
-20.84982491 -15.42934132 32.72169113
-20.99603844 -15.41102886 32.27792358
-21.10382843 -15.28215122 31.83953476
-21.20961380 -15.10178947 31.41878891
-21.33572197 -14.89835835 31.01455688
-21.50408554 -14.73361111 30.60896111
-21.64655495 -14.56503582 30.19614792
-21.72170448 -14.39495659 29.76558113
-21.74555588 -14.30843163 29.30526543
-21.81642151 -14.22251415 28.85183525
-21.91486549 -14.12861252 28.40347672
-22.01191902 -14.08116531 27.94722557
-22.12780952 -14.06392097 27.49264145
-22.22867966 -13.98213863 27.04324722
-22.38470650 -13.85857391 26.61836433
-22.55978394 -13.80026245 26.18676186
-22.69103432 -13.74815559 25.73910713
-22.81879234 -13.71918392 25.28883553
-22.89760208 -13.72056293 24.82751083
-22.91006279 -13.65365982 24.36342239
-22.84929276 -13.57551003 23.90671730
-22.73233223 -13.53577518 23.45341873
-22.67704010 -13.50732422 22.98824501
-22.57769775 -13.46257305 22.53415680
-22.34796906 -13.34406090 22.14415359
-22.13682175 -13.14644814 21.77624512
-22.01883888 -12.94260788 21.37026215
-21.84397507 -12.79596424 20.96288300
-21.53195381 -12.68303967 20.63289070
-21.17654419 -12.54144955 20.36051559
-20.81197739 -12.41687584 20.09296227
-20.39580154 -12.37317944 19.88347435
-19.98125267 -12.30125237 19.68004799
-19.66570663 -12.11569500 19.38979340
-19.37374687 -11.84942722 19.14076424
-19.04300117 -11.56935406 18.95932007
-18.72303581 -11.25810337 18.81759644
-18.47198105 -10.89927006 18.65513229
-18.21578217 -10.56772423 18.44635773
-17.85984039 -10.29885387 18.30316925
-17.49698257 -10.05313873 18.13825417
-17.15449333 -9.78755760 17.95897484
-16.79209328 -9.50086784 17.87878609
-16.48676300 -9.14853764 17.84576797
-16.23459435 -8.75909233 17.77465439
-15.99022198 -8.38421059 17.63308907
-15.69888687 -8.06379604 17.45778465
-15.40976810 -7.77369833 17.23342323
-15.19980621 -7.47399569 16.93885612
-14.97524071 -7.20783949 16.62373734
-14.67912483 -7.00382996 16.32368088
-14.37231445 -6.81897736 16.02075958
-14.17353725 -6.58386564 15.66871071
-14.07222271 -6.30879354 15.30177975
-13.97626019 -5.98206043 14.97938251
-13.87385464 -5.65346336 14.66051006
-13.71414852 -5.37987804 14.31593323
-13.55744553 -5.10830688 13.96859741
-13.45621109 -4.88192701 13.57196808
-13.30294228 -4.72613859 13.15657425
-13.11959743 -4.57036161 12.75287724
-12.99822235 -4.37267351 12.34607792
-12.87501431 -4.20244217 11.92892551
-12.68674374 -4.07574558 11.51776028
-12.49078560 -3.84905672 11.15890598
-12.26795959 -3.53391767 10.89302826
-12.09178448 -3.16873264 10.66046906
-11.94286728 -2.81392479 10.39348888
-11.81995106 -2.50501776 10.06523991
-11.74755478 -2.17818308 9.73682308
-11.65740204 -1.81286919 9.45548344
-11.59473991 -1.48042119 9.13185501
-11.46895409 -1.19412601 8.78437901
-11.28026581 -0.90985924 8.46134853
-11.12617016 -0.63497627 8.11311722
-10.95175648 -0.34980506 7.78449440
-10.78336525 -0.02071460 7.49577332
-10.61979294 0.29435897 7.18969297
-10.47871399 0.55961490 6.83074903
-10.38265228 0.85726923 6.48193693
-10.27895641 1.14826441 6.13009977
-10.14813614 1.40269780 5.75826931
-10.00730991 1.71067154 5.43386984
-9.86633682 2.08306861 5.18719387
-9.71184254 2.45929766 4.95343781
-9.60308647 2.84971523 4.71836376
-9.49740887 3.24785614 4.49394989
-9.34203053 3.60873008 4.23638678
-9.21008301 3.98822093 3.99488187
-9.06041241 4.35003805 3.73958397
-8.88199615 4.71796513 3.51335263
-8.75200844 5.13888168 3.34998465
-8.65897942 5.58472490 3.23947644
-8.55847454 6.04033947 3.18678594
-8.39730263 6.47738552 3.12740159
-8.24526882 6.91911125 3.08446741
-8.20051575 7.38342333 3.04575491
-8.22725391 7.84697676 2.97373962
-8.30018902 8.29708004 2.86400938
-8.42868614 8.72474003 2.71798062
-8.53728962 9.16513157 2.59859705
-8.62812328 9.60328388 2.45943141
-8.79634285 9.99990463 2.27574897
-8.98446751 10.40074062 2.12131476
-5.63999844 15.88996124 2.26757455
-5.61920214 15.42112064 2.28678322
-5.65826082 14.95441151 2.31995010
-5.73872805 14.49240589 2.31214738
-5.79289436 14.02777386 2.32376862
-5.83165073 13.56418037 2.38905334
-5.81714058 13.09763432 2.42399073
-5.80720520 12.63608932 2.49464035
-5.84106159 12.18510818 2.62120366
-5.89099741 11.74199200 2.76680183
-5.96299934 11.30104828 2.91153717
-6.03035688 10.85837841 3.05365658
-6.14013720 10.42897701 3.20938683
-6.23053408 9.98152542 3.31275511
-6.22728825 9.51587963 3.36899185
-6.17846346 9.04975891 3.39359927
-6.08999777 8.58921051 3.40138602
-5.92301750 8.15360546 3.45256829
-5.78503418 7.70850992 3.49721074
-5.68307638 7.25483847 3.55850434
-5.59620237 6.80294418 3.65011382
-5.52238607 6.34313202 3.71058869
-8.09203148 8.62760925 2.08436275
-8.08637238 8.17395973 2.20679688
-8.06219578 7.71915054 2.32257581
-8.03958893 7.26115465 2.42526197
-8.02985954 6.80677032 2.54391193
-8.09747982 6.36401558 2.67890620
-8.21653271 5.93535805 2.82887506
-8.27051067 5.48647738 2.95025492
-8.31578636 5.02615309 3.03063583
-8.40220928 4.58975554 3.17868590
-8.52051544 4.17226315 3.35835791
-8.61447620 3.76397562 3.56757140
-8.66629124 3.38600898 3.84161282
-8.78420258 3.04505014 4.14050007
-8.94510365 2.68492270 4.39291525
-9.16032314 2.32971430 4.60708380
-9.41237545 1.98939002 4.80834818
-9.64875412 1.63996267 5.01400614
-9.86836052 1.29548347 5.24514484
-10.05465889 0.89952093 5.41226959
-10.22933197 0.48126429 5.53566217
-10.36737442 0.07970846 5.73365021
-10.46366215 -0.31132722 5.97576332
-10.57475185 -0.69256943 6.22612429
-10.63697338 -1.03266132 6.53998470
-10.67130470 -1.35785496 6.87607813
-10.77398968 -1.72058964 7.15530252
-10.89606571 -2.10460162 7.39715433
-10.95331764 -2.47908807 7.67203569
-11.01205063 -2.81903124 7.98836184
-11.06341267 -3.12909245 8.33491135
-11.04647064 -3.39495993 8.72124100
-11.03053379 -3.67342520 9.09797096
-11.04199505 -4.02618122 9.40666103
-11.08288956 -4.36428356 9.72852135
-11.14472580 -4.60751867 10.12410736
-11.17341137 -4.82315063 10.53905201
-11.23215389 -5.07100773 10.93054008
-11.33193970 -5.27338505 11.34033108
-11.39493656 -5.45539141 11.76849842
-11.44070721 -5.74130392 12.13491631
-11.41529274 -6.11033106 12.42333126
-11.32655907 -6.48435450 12.69332886
-11.23308277 -6.82113934 13.00616837
-7.36735582 8.44494152 2.55089903
-7.11796188 8.79500866 2.36259317
-6.94457769 9.20997334 2.23236942
-6.82524729 9.65768051 2.15385890
-6.69632387 10.08964920 2.02651381
-6.59258366 10.50792027 1.84046161
-6.57335997 10.94896507 1.68232727
-6.62083483 11.40721130 1.59339416
-6.65177584 11.86257076 1.48870516
-6.67502022 12.32067490 1.39659822
-6.74686623 12.77735806 1.31929302
-6.80696964 13.23696899 1.25452077
-6.81600094 13.70620155 1.27279913
-6.80816936 14.17364311 1.24215674
-6.80478477 14.62944698 1.12827599
-5.83034658 12.98426151 -0.98025858
-6.02478027 12.68540668 -0.67451811
-6.23915577 12.34835148 -0.42887458
-6.44060087 11.97001171 -0.23826544
-6.52189445 11.54077816 -0.07222220
-6.52556562 11.09070587 0.06279829
-6.47906017 10.65537548 0.22854468
-6.39273119 10.22674561 0.39897025
-6.35039902 9.77421951 0.51691097
-6.40020132 9.32769012 0.64855325
-6.54784441 8.89131069 0.72568327
-6.74717474 8.46699905 0.75004154
-6.96488094 8.06423187 0.85254157
-7.11560202 7.63457966 0.95707464
-7.24339724 7.19551325 1.05856740
-7.45272207 6.81427670 1.23347116
-7.75371647 6.53613663 1.45752096
-8.12538528 6.36917353 1.69044459
-8.51926041 6.21590328 1.89504588
-8.90009785 6.06105661 2.12090206
-9.29488564 6.01030493 2.36545539
-9.68590927 6.00712109 2.62380600
-10.06754780 5.95429802 2.89202404
-10.50345802 5.92147589 3.05683374
-5.72346354 6.18012905 3.85755110
-5.78046417 6.64616966 3.84094453
-5.85370970 7.10912466 3.80674267
-5.93374968 7.57186604 3.80150414
-5.97187376 8.03864098 3.77978873
-6.01055431 8.48875046 3.65686274
-6.08976126 8.92815685 3.51176977
-6.15258408 9.38339329 3.41414881
-6.19093132 9.84739399 3.35157633
-6.17232084 10.30700397 3.26420593
-6.06920910 10.74632549 3.13447475
-5.95979261 11.19134903 3.03246665
-5.92757797 11.64581108 2.92262769
-5.87694168 12.08741093 2.77538157
-5.81927156 12.53574657 2.65308881
-5.85693741 12.99542046 2.56506395
-5.92188692 13.45110226 2.47025609
-6.00016260 13.90878868 2.40227985
-6.07117081 14.36609650 2.32632637
-6.08400774 14.83117485 2.27980208
-6.06076956 15.29906273 2.31670570
-7.38659096 -25.77301979 55.68360519
-7.46029234 -25.70889854 55.56116867
-7.63283253 -25.49687576 55.17918015
-7.78342152 -25.31530762 54.77359772
-7.90352583 -25.21253014 54.33179474
-7.95642424 -25.09426498 53.88067627
-8.01893044 -24.92201424 53.44817734
-8.10839939 -24.77027130 53.01406479
-8.25782108 -24.53150749 52.63872528
-8.48123074 -24.34274864 52.27188873
-8.77414989 -24.18870163 51.94004059
-9.09921360 -23.96663666 51.68606186
-9.32929420 -23.67919731 51.39677048
-9.47169209 -23.44963455 51.01416397
-9.51003647 -23.25959206 50.58790207
-9.51416111 -23.15012169 50.13202286
-9.47393322 -22.94756699 49.71010590
-9.45664406 -22.75769043 49.28151321
-9.48574257 -22.65888405 48.82368088
-9.56103992 -22.59104729 48.36617661
-9.72596073 -22.47684479 47.94270325
-9.92970657 -22.43584251 47.52232361
-10.14301014 -22.30057144 47.12633514
-10.32114983 -22.20854378 46.70212173
-10.43202209 -22.19954872 46.24720764
-10.45747089 -22.23169518 45.77987671
-10.49572277 -22.14918518 45.32019424
-10.60728455 -21.98839378 44.89476013
-10.84666252 -21.85037422 44.51599503
-11.13218117 -21.72714996 44.16498566
-11.34515285 -21.64774323 43.75449753
-11.53760242 -21.53375244 43.34251785
-11.78642941 -21.48046303 42.94821548
-11.98380756 -21.41493225 42.52815247
-12.22760105 -21.44105148 42.12749863
-12.45934296 -21.39823151 41.72254562
-12.68962193 -21.27515411 41.33312607
-12.87980366 -21.24784660 40.90549469
-13.14294243 -21.24530411 40.51753998
-13.43955803 -21.15947342 40.16417694
-13.76871300 -21.12042236 39.83141708
-14.06136990 -21.06196594 39.46837997
-14.35798931 -21.02939796 39.10601807
-14.64469337 -21.06484604 38.73597717
-14.90191650 -21.05529404 38.34421158
-15.19994354 -20.96090698 37.99438858
-15.43658066 -20.81268120 37.61719894
-15.68250751 -20.61511803 37.26921844
-15.97470760 -20.49741745 36.92232513
-16.30864525 -20.48964882 36.59316635
-16.62449455 -20.54568481 36.24995422
-16.90898895 -20.57522011 35.87735367
-17.16336250 -20.62174225 35.48504257
-17.43064880 -20.61241913 35.10000992
-17.68320656 -20.54529190 34.71087646
-17.96093750 -20.58530045 34.33596039
-18.34431839 -20.58300400 34.06746674
-18.77921677 -20.55837822 33.89170837
-19.20863914 -20.51135063 33.70784378
-19.60083580 -20.46519661 33.45438385
-19.95434761 -20.46213722 33.14542770
-20.25858307 -20.39249992 32.79677200
-20.52466583 -20.23519516 32.44400406
-20.78249359 -20.18567276 32.05601501
-20.97859192 -20.16658592 31.63054276
-21.25415039 -20.16857338 31.25021553
-21.45966148 -20.15628433 30.82908249
-21.57889748 -20.09985161 30.37903023
-21.68786621 -19.96636200 29.94225502
-21.73550797 -19.86182594 29.48685074
-21.77226257 -19.75651360 29.03162384
-21.90125275 -19.67765999 28.58730507
-21.98454857 -19.51070595 28.15698051
-22.02043152 -19.28221512 27.74798775
-22.08016014 -19.04867172 27.34626198
-22.24829102 -18.83489418 26.96397209
-22.39211082 -18.56448936 26.60829163
-22.45626259 -18.33575439 26.20486259
-22.43708420 -18.10913086 25.79468918
-22.53197861 -17.87528610 25.39897346
-22.63202286 -17.67007637 24.98927689
-22.66015244 -17.41231537 24.59780502
-22.72095871 -17.12550545 24.23081589
-22.72643280 -16.83430290 23.86223221
-22.66589928 -16.54544640 23.49810600
-22.51441193 -16.29626656 23.12991905
-22.37077141 -16.08326721 22.73713493
-22.17951584 -15.93697929 22.33372116
-21.98531723 -15.79526901 21.93046951
-21.79679871 -15.59376907 21.55183601
-21.50352859 -15.41334248 21.23374367
-21.18198013 -15.30717468 20.90831184
-20.85696220 -15.15533733 20.60499382
-20.52928162 -15.02061939 20.29842567
-20.14425087 -14.93349361 20.04512405
-19.80893326 -14.80831432 19.74241829
-19.40641975 -14.65510082 19.55956078
-18.96281433 -14.52357578 19.48010826
-18.54413795 -14.33119869 19.39015961
-18.15281677 -14.10216045 19.26876831
-17.78291321 -13.82361221 19.19063187
-17.45219994 -13.51772022 19.05888367
-17.17004776 -13.15852165 18.95095062
-16.87926674 -12.79139042 18.91611481
-16.56391144 -12.44349670 18.89927864
-16.24698639 -12.10121441 18.84278870
-15.94392109 -11.76277828 18.72973251
-15.68816471 -11.44176865 18.50198174
-15.40816689 -11.15931034 18.25262642
-15.20303059 -10.83517265 17.98408890
-15.04676247 -10.43201733 17.80090904
-14.86822510 -10.03298664 17.63216782
-14.58336353 -9.70538330 17.45426178
-14.28247738 -9.43665409 17.21462440
-13.96322346 -9.22690392 16.94209099
-13.59720421 -9.05321884 16.70402336
-13.25377178 -8.84435368 16.46175766
-12.94375229 -8.54469299 16.28059387
-12.70342827 -8.16063309 16.15937042
-12.41599369 -7.79903889 16.07645798
-12.16815758 -7.45059013 15.88488674
-11.99069977 -7.12432623 15.59908676
-11.93705750 -6.80103302 15.26517200
-12.00057220 -6.50410652 14.90683174
-12.06189728 -6.20263529 14.55172157
-12.09624100 -5.92761660 14.17370796
-12.16241741 -5.74025345 13.74979496
-12.23028946 -5.56168318 13.32198620
-12.25973415 -5.30999613 12.92714024
-12.29070950 -5.02787018 12.55262661
-12.33212948 -4.74706078 12.17831707
-12.42092705 -4.47895432 11.80308914
-12.48714352 -4.29477310 11.37910271
-12.45687008 -4.13221598 10.94111252
-12.34303188 -3.98537111 10.51153374
-12.23805809 -3.86499476 10.07080364
-12.13857841 -3.66653943 9.65808105
-12.02748013 -3.45936084 9.25203323
-11.96320915 -3.24692917 8.83855057
-11.87899876 -3.05320430 8.42072010
-11.70525169 -2.89800215 8.01399422
-11.49375057 -2.66085601 7.67038298
-11.32725430 -2.36958981 7.34204006
-11.19874001 -2.03844452 7.03675556
-11.00676727 -1.69169927 6.78820181
-10.80043602 -1.40039968 6.48660898
-10.63184738 -1.09852612 6.17023849
-10.48598576 -0.76489788 5.87443495
-10.36946011 -0.43372971 5.56209469
-10.22841072 -0.06265825 5.31371307
-10.03263474 0.29390198 5.08263779
-9.81688499 0.57710403 4.77707005
-9.61037922 0.88085335 4.48636007
-9.44437695 1.24171162 4.23722982
-9.28605461 1.60599852 3.98754144
-9.16066742 1.96403003 3.71444249
-9.09693623 2.28562307 3.37913084
-9.00602818 2.59431100 3.03730273
-8.94325256 2.92637086 2.71152878
-8.84005928 3.25766802 2.39807320
-8.68202400 3.62380505 2.15166306
-8.58573437 4.05508900 1.99685073
-8.52989864 4.51485109 1.91843760
-8.41775036 4.95816851 1.81917310
-8.30331707 5.38605642 1.66531777
-8.21013260 5.83437824 1.56883681
-8.09657288 6.28959131 1.54095316
-8.03357697 6.74842882 1.46949255
-7.93574524 7.18238592 1.32568681
-7.70850849 7.57027864 1.19478703
-7.47052431 7.96916199 1.13221824
-7.29591751 8.39975357 1.06502712
-7.10840034 8.82236671 0.98408741
-6.93588924 9.25333595 0.91709328
-6.75446749 9.68403625 0.89839035
-6.52297354 10.09168625 0.93156481
-6.27124929 10.48762226 0.95310837
-6.01507711 10.88121319 0.96457040
-5.87747335 11.16227913 0.97323614
-6.26993752 9.77753925 3.02891421
-6.17974186 10.23492241 2.97485256
-6.16460657 10.70268917 2.93712807
-6.13308954 11.16794872 2.88828731
-6.04195738 11.62796307 2.86629725
-5.93802118 12.08595753 2.85452914
-5.85659409 12.54386520 2.79112172
-5.84137964 13.00863838 2.72871661
-5.83448458 13.47036743 2.64739418
-5.82887173 13.92878151 2.54653573
-5.80652952 14.39306831 2.48273516
-5.73087025 14.85141277 2.41249609
-5.70880032 15.30931091 2.31524825
-5.69997120 15.77159977 2.23778653
-30.12302399 -55.76495743 24.62255287
-30.11710548 -55.61943054 24.56485367
-30.09906578 -55.18260193 24.39449310
-30.16050339 -54.76567459 24.18683624
-30.18864822 -54.33513260 24.00497818
-30.09729195 -53.89216232 23.87889099
-29.98945999 -53.44442749 23.78598785
-29.87194252 -53.01136398 23.64904785
-29.80392265 -52.59222031 23.45020103
-29.80582619 -52.14381409 23.31019020
-29.80332375 -51.70085907 23.15396309
-29.79497147 -51.28063583 22.94693184
-29.67617226 -50.89937973 22.70195389
-29.54371071 -50.58964539 22.37572670
-29.32336998 -50.30778122 22.07131767
-29.10015869 -50.01312256 21.78139114
-28.86566925 -49.71031189 21.51027679
-28.59458733 -49.45573044 21.22406197
-28.39252090 -49.15027237 20.92990875
-28.16703796 -48.87582016 20.62422943
-27.84715080 -48.62868500 20.38629532
-27.53942299 -48.33583832 20.18744469
-27.29183578 -48.02828598 19.93337440
-27.04317474 -47.69427109 19.71635628
-26.83801460 -47.35802460 19.46291542
-26.69918633 -46.94738770 19.28192902
-26.54813957 -46.53763199 19.11064720
-26.35934448 -46.11524582 19.03206253
-26.20640755 -45.67202759 19.00021362
-26.03628349 -45.23551178 18.96586800
-25.82893372 -44.81772232 18.90917397
-25.63836670 -44.39556503 18.83220100
-25.48817635 -43.95878601 18.74813461
-25.24553680 -43.57880020 18.62421989
-24.93530846 -43.28992462 18.42229652
-24.64788628 -42.98999023 18.20369720
-24.36987877 -42.65696716 18.02400398
-24.08325577 -42.36962509 17.78756714
-23.77790642 -42.09745407 17.55718040
-23.45231438 -41.80394363 17.38794899
-23.10107040 -41.54603195 17.21275139
-22.73727798 -41.32265472 17.01691818
-22.39237785 -41.09118271 16.79750252
-22.02476883 -40.85706329 16.62282372
-21.70543098 -40.55114746 16.46729088
-21.43065453 -40.18999863 16.34652138
-21.10160637 -39.86557388 16.26742554
-20.75076675 -39.55342484 16.27272987
-20.39145279 -39.25221634 16.24158478
-20.04818726 -38.93168259 16.23479271
-19.75123596 -38.56851196 16.21267891
-19.49788666 -38.17729950 16.16024971
-19.27785110 -37.77453613 16.06434059
-19.01960182 -37.38342285 16.04775047
-18.75064278 -37.01575089 15.93332100
-18.51174164 -36.62896347 15.81540012
-18.31258011 -36.21178436 15.73626137
-18.21247292 -35.76048660 15.65379715
-18.14500809 -35.29984283 15.59071827
-18.08620834 -34.83436966 15.57237625
-18.07464600 -34.36498260 15.59185791
-18.07423401 -33.90223312 15.66232681
-18.07325935 -33.48032761 15.86631393
-18.01103401 -33.07098770 16.08669281
-18.01804352 -32.63444901 16.25932121
-18.00314713 -32.22798538 16.49417686
-17.94689560 -31.83591461 16.74686623
-17.89034271 -31.43690109 16.98713112
-17.88733101 -31.02226067 17.20675087
-17.80423164 -30.63473129 17.45845222
-17.72869492 -30.22665215 17.67663193
-17.73997307 -29.82618904 17.92179489
-17.71813774 -29.39954185 18.11624718
-17.68366241 -28.95561028 18.26321602
-17.56163216 -28.54459381 18.45500946
-17.47719765 -28.11562729 18.62708855
-17.38876915 -27.67272186 18.75436783
-17.27595711 -27.22312737 18.82797050
-17.15994644 -26.79634285 18.98343086
-17.14229012 -26.36804771 19.17550850
-17.11689186 -25.93493843 19.35282898
-17.06599426 -25.47719574 19.44383812
-17.08182907 -25.02591133 19.57300568
-17.10097313 -24.56833839 19.67202187
-17.02028275 -24.10681915 19.70517159
-16.94419861 -23.64500427 19.74439430
-16.90177536 -23.18613625 19.83537483
-16.90507889 -22.72346306 19.91116333
-16.95046616 -22.25641632 19.88991737
-17.03606987 -21.79565620 19.86968613
-17.16696167 -21.34628105 19.89483261
-17.20089912 -20.88074112 19.94744682
-17.25463295 -20.41827393 20.00820160
-17.23694611 -19.95687675 20.09472084
-17.23820496 -19.49914932 20.19537926
-17.37315941 -19.06124878 20.29462051
-17.57514763 -18.65137863 20.40408325
-17.73371315 -18.23260689 20.54129028
-17.76615334 -17.78676605 20.68301010
-17.74752617 -17.32197380 20.74485016
-17.68793869 -16.85708237 20.76428413
-17.67915726 -16.39108467 20.70982170
-17.63321495 -15.93332386 20.61808395
-17.65916252 -15.47007179 20.54678154
-17.59704018 -15.00804520 20.49317360
-17.48864365 -14.55665016 20.42405510
-17.38969612 -14.09775543 20.41502190
-17.25382042 -13.65929699 20.31979370
-17.10443115 -13.24618053 20.15458488
-16.92343521 -12.83633995 20.01663589
-16.79916763 -12.42723751 19.82421494
-16.61917686 -12.01623344 19.68783951
-16.48877525 -11.63739300 19.44454384
-16.29449081 -11.31119156 19.16965866
-16.05578041 -10.97577381 18.94535828
-15.87066936 -10.66447258 18.64767265
-15.58844948 -10.40078354 18.38052750
-15.29081631 -10.12669086 18.14159775
-14.99759293 -9.84055138 17.91148186
-14.71752071 -9.54573822 17.67625046
-14.46657848 -9.23764706 17.42717552
-14.23231792 -8.99487972 17.10037994
-14.01998138 -8.73768997 16.76956558
-13.78035736 -8.45637131 16.47964668
-13.53811073 -8.15410805 16.21448708
-13.37155151 -7.81940365 15.93023014
-13.20261574 -7.46615314 15.67160130
-12.97703934 -7.13217163 15.43105507
-12.84207916 -6.80295849 15.12674141
-12.80565071 -6.47819996 14.78985023
-12.74295235 -6.20537043 14.41301537
-12.75994968 -5.97189522 14.00688267
-12.83227634 -5.77771235 13.58601379
-12.86628342 -5.54798603 13.17798138
-12.83795357 -5.29817772 12.78223324
-12.73830986 -5.04339170 12.40126705
-12.58340168 -4.87383699 11.99256611
-12.38906860 -4.74070549 11.58638859
-12.20795727 -4.55898571 11.19366932
-12.03474331 -4.28537703 10.85704041
-11.83091545 -4.01063156 10.53750134
-11.65898037 -3.80487156 10.15229797
-11.58184433 -3.64385891 9.71970844
-11.54133224 -3.49536180 9.27613926
-11.54973316 -3.28178072 8.86066437
-11.59710503 -3.00555563 8.48429775
-11.55391979 -2.69688344 8.13408661
-11.52904987 -2.41592193 7.76167822
-11.51395988 -2.12473392 7.39662790
-11.36255741 -1.82792497 7.06874561
-11.19893932 -1.52544105 6.75156164
-11.10685539 -1.17577159 6.45146132
-10.94505310 -0.85233402 6.15536404
-10.75953484 -0.50566661 5.90274096
-10.64898396 -0.09765267 5.69781065
-10.49028111 0.30636245 5.52231932
-10.29284763 0.68564475 5.32932138
-10.17977047 1.07083106 5.08744621
-10.10462189 1.41661036 4.78147793
-10.04198837 1.70310259 4.41475630
-9.95329762 2.00122714 4.06447983
-9.84738541 2.33792758 3.75545216
-9.76836014 2.65376186 3.41851497
-9.64007854 2.96212292 3.09046769
-9.46958351 3.30909419 2.82338572
-9.32409096 3.64741874 2.53266454
-9.22773552 3.98582983 2.22138023
-9.14260483 4.36558247 1.95940840
-9.07407475 4.78739977 1.76521921
-9.02703381 5.23781586 1.64230943
-8.95021725 5.69878244 1.60134256
-8.87823391 6.16158581 1.57158828
-8.76264381 6.61319160 1.53621078
-8.63176727 7.05888033 1.48087859
-8.49582195 7.49676180 1.38591635
-8.28286171 7.90110826 1.27712822
-8.04134750 8.28489399 1.15431488
-7.77606964 8.66315556 1.07075083
-7.52213383 9.05309105 1.00662649
-7.26064205 9.43920994 0.95243222
-6.98958397 9.82178307 0.97043949
-6.72642183 10.20775318 1.02093053
-6.46677160 10.59828758 1.05013418
-6.17666054 10.96670628 1.05988371
-14.07954597 6.92562771 4.56033564
-13.71103859 7.06765318 4.30738401
-13.33931065 7.22827959 4.07298708
-12.97741222 7.47470474 3.90466404
-12.62971497 7.69627285 3.68489170
-12.26712227 7.90564966 3.47758245
-11.92504215 8.15341282 3.27545118
-11.56865311 8.30206966 3.01252174
-11.18207455 8.37115479 2.75435424
-10.80481339 8.46536064 2.49070764
-10.45361519 8.54518509 2.19030237
-10.14875507 8.64587212 1.84905541
-9.92552567 8.81853199 1.47487712
-9.68463326 8.99383831 1.11452866
-9.38124275 9.15275288 0.79266381
-9.15041924 9.30549812 0.41605943
-8.95265388 9.42072296 0.00657229
-8.71965408 9.46926308 -0.39808628
-8.52779388 9.50638008 -0.82462567
-8.38135433 9.59446239 -1.26208758
-8.22192287 9.69930840 -1.69137359
-8.03611279 9.79493427 -2.11236882
-7.84158897 9.92393303 -2.51972270
-7.60302591 10.12512493 -2.86847377
-7.38465881 10.41915035 -3.15914416
-7.23098326 10.71204376 -3.49037766
-7.06230068 10.91839695 -3.87684846
-6.87866640 11.04387856 -4.28970480
-6.72504520 11.13800716 -4.72332859
-6.64510250 11.26111221 -5.16887093
-6.59095144 11.47094536 -5.58274508
-6.47761965 11.68370152 -5.98308992
-6.30212498 11.81015301 -6.39995003
-6.06922150 11.99558830 -6.75966549
-5.82695198 12.24781322 -7.07343292
-5.64263153 12.51937485 -7.40867138
-5.53903770 12.83115387 -7.74381876
-5.42996597 13.14539528 -8.07470036
-5.28889179 13.41878510 -8.42945766
-5.13968658 13.59068394 -8.83736134
-4.99757957 13.72016716 -9.26535702
-4.82891893 13.89546585 -9.66624737
-4.63332272 14.04607773 -10.06539440
-4.46718693 14.22389221 -10.46605206
-4.32062769 14.45448875 -10.84841537
-4.15015507 14.69189262 -11.21560383
-3.98875213 14.89352608 -11.60588360
-3.87229252 15.10964680 -12.00471878
-3.75502992 15.30738163 -12.41156387
-3.64599609 15.49687481 -12.82521343
-3.51828933 15.76616001 -13.18807888
-3.36829543 16.03667831 -13.54181576
-3.22690558 16.32185936 -13.88716125
-3.05927038 16.65467262 -14.17150593
-2.92723918 17.02982330 -14.41874599
-2.87566376 17.43898010 -14.64310741
-12.03908730 -5.84271193 12.68506336
-12.17830276 -5.53869343 12.35487747
-12.22848034 -5.21488190 12.02119637
-12.20286083 -4.88870859 11.68384075
-12.10205936 -4.57531500 11.35166264
-11.94378471 -4.28672361 11.01655483
-11.86900043 -3.99867654 10.65473270
-11.82011223 -3.68326473 10.31112003
-11.70550442 -3.37022185 9.98060703
-11.52580547 -3.14333963 9.61289215
-11.39696121 -2.97743511 9.19583225
-11.30597687 -2.78745198 8.77719784
-11.16930866 -2.57320595 8.38183594
-11.02503586 -2.35206509 7.99318981
-10.80203438 -2.16593599 7.62656784
-10.51033688 -2.04144168 7.27991819
-10.26196003 -1.91200900 6.90418959
-10.01653385 -1.72283530 6.55391455
-9.79107857 -1.44871080 6.24956036
-9.63525677 -1.14663374 5.92527771
-9.46029377 -0.84433556 5.61157084
-9.29473209 -0.53787047 5.29695272
-9.13311386 -0.26345119 4.95184040
-8.99528885 0.05711010 4.64134932
-8.88928604 0.41382059 4.35502100
-8.73102951 0.71419394 4.03136301
-8.53199482 1.01704633 3.73391199
-8.36130428 1.35256624 3.45369029
-8.28592587 1.68782675 3.13496876
-8.22364044 2.05667377 2.85378981
-8.14595032 2.44218612 2.59764290
-8.09917736 2.85758877 2.38833213
-8.02038097 3.29359674 2.23354197
-7.94849682 3.70790625 2.02581406
-7.93044090 4.13484001 1.83235717
-7.86887598 4.58882999 1.73840821
-7.80247593 5.04185390 1.64212835
-7.75359249 5.48799706 1.50445092
-7.66297150 5.93621635 1.39641380
-7.52429104 6.37362814 1.29800427
-7.38180637 6.81259060 1.21258521
-7.26479959 7.25327015 1.10201132
-7.16650820 7.69809341 0.99069494
-7.11300802 8.15686512 0.90472150
-7.01658392 8.60845280 0.82498717
-6.85181284 9.03678036 0.72728193
-6.67750740 9.45639992 0.60786724
-12.81188011 -17.48354340 51.28765106
-12.89309502 -17.47426224 51.15412521
-13.08158112 -17.44342613 50.72573853
-13.17556381 -17.36250687 50.27435684
-13.28092957 -17.24362755 49.83346176
-13.43848610 -17.14376831 49.40204620
-13.61705208 -16.97614670 49.00384903
-13.80036736 -16.79499817 48.61264801
-13.88692856 -16.65583420 48.17464828
-13.92978954 -16.58526421 47.71469879
-14.06010818 -16.61147690 47.26517868
-14.24694729 -16.62817764 46.83449936
-14.48323536 -16.59107399 46.43154144
-14.73443508 -16.57829475 46.03627396
-14.91665268 -16.58045006 45.60433197
-15.02149963 -16.60912514 45.14914703
-15.04213905 -16.68138313 44.68606186
-15.04264641 -16.64776993 44.22014236
-15.07650757 -16.53397560 43.76543045
-15.20419216 -16.40915298 43.33370972
-15.44390392 -16.30088043 42.94509506
-15.71482944 -16.14246559 42.59861374
-15.99651527 -15.91050243 42.30269241
-16.24871826 -15.72429848 41.95632935
-16.37522888 -15.56626987 41.53474808
-16.38106537 -15.45099640 41.08132172
-16.37600327 -15.40170002 40.61428070
-16.47712898 -15.34059715 40.16172028
-16.66885376 -15.29384804 39.73558426
-16.83678055 -15.22902679 39.30308151
-16.95104218 -15.18501186 38.85104370
-17.10065842 -15.14540577 38.40983963
-17.35569572 -15.06339359 38.02586365
-17.61803627 -14.93472099 37.66115952
-17.85045624 -14.82289505 37.27152252
-18.09764290 -14.82285118 36.87216949
-18.31683350 -14.80063057 36.45819473
-18.55162048 -14.78044987 36.05344009
-18.82273293 -14.83911991 35.67439651
-19.06043053 -14.94253540 35.28313065
-19.28885460 -15.00173378 34.87835693
-19.56820869 -14.99785233 34.50112152
-19.84696960 -15.02821064 34.12514877
-20.11431122 -15.10014248 33.74571991
-20.43187332 -15.11107540 33.40224838
-20.70417213 -15.04257679 33.02895737
-20.93966293 -14.94127655 32.63634491
-21.18955421 -14.90135098 32.24372482
-21.42428207 -14.90695858 31.83730888
-21.73581505 -14.90599632 31.48896599
-22.06027412 -14.97309589 31.15808105
-22.33639908 -15.00836849 30.78158379
-22.61710358 -15.03848553 30.40762138
-22.89881134 -15.13558769 30.04430199
-23.16668701 -15.22391605 29.66846466
-23.36573219 -15.28047848 29.24847794
-23.48820686 -15.29609585 28.79533577
-23.64681435 -15.22662544 28.36116219
-23.85058784 -15.15871334 27.94489098
-24.10121155 -15.09400177 27.55588722
-24.34188080 -14.95749474 27.17804527
-24.47972298 -14.78375435 26.76474380
-24.54634094 -14.61306190 26.33267593
-24.55999947 -14.46972847 25.88556671
-24.60177422 -14.28997135 25.45506096
-24.74454117 -14.07543278 25.06316948
-24.89814758 -13.87761116 24.66641045
-25.03771400 -13.68030834 24.26379013
-25.15643692 -13.52107906 23.84038353
-25.13899231 -13.41751003 23.38528824
-24.97372818 -13.34332848 22.95336342
-24.68359756 -13.31704426 22.58784676
-24.37282562 -13.26996517 22.24083900
-24.04602242 -13.21452236 21.91132164
-23.70059395 -13.13916874 21.60430908
-23.41098213 -12.98357677 21.26908302
-23.11805344 -12.76206875 20.97771835
-22.79970360 -12.56044102 20.69915962
-22.43515396 -12.44876385 20.42664909
-22.06676483 -12.36250877 20.14959335
-21.72959137 -12.31707668 19.82678223
-21.42227173 -12.24618340 19.48172951
-21.16514015 -12.11765003 19.11025047
-20.87778091 -11.97764683 18.76808739
-20.49606895 -11.83267879 18.54103470
-20.06840706 -11.71499825 18.38576889
-19.65924072 -11.62939835 18.17463303
-19.29822731 -11.51590252 17.89838982
-18.97325325 -11.29308319 17.64467239
-18.63634300 -11.01177692 17.48034859
-18.26539421 -10.73623753 17.39627457
-17.87966919 -10.51049328 17.25933838
-17.48952293 -10.34018517 17.06064606
-17.09701920 -10.15652752 16.87949562
-16.75914192 -9.87265873 16.72611618
-16.45017433 -9.57961464 16.53411865
-16.17502022 -9.35499668 16.22940063
-15.98283768 -9.14511776 15.85587883
-15.82031536 -8.93864155 15.46623325
-15.67924500 -8.66919136 15.11031055
-15.50911427 -8.34812641 14.81396198
-15.30504704 -8.03855133 14.52553844
-15.06821918 -7.71615601 14.28330135
-14.75161362 -7.40511036 14.13152885
-14.43261337 -7.07256746 14.04922295
-14.13929367 -6.72765827 13.93340302
-13.80259514 -6.43897009 13.78199959
-13.46488571 -6.14800215 13.63691235
-13.17852402 -5.84544516 13.42042255
-12.93702507 -5.56329870 13.13370323
-12.77572823 -5.32700014 12.76360321
-12.60783291 -5.13345432 12.37128735
-12.43346882 -4.99296713 11.96080399
-12.25375175 -4.85909128 11.55042553
-12.06568623 -4.71567059 11.14618778
-11.94509888 -4.56396294 10.71892929
-11.89461231 -4.31359625 10.32715702
-11.85381794 -4.04150295 9.94751740
-11.72409630 -3.80120540 9.56602001
-11.56389236 -3.63833857 9.15854549
-11.40873432 -3.50168061 8.73787594
-11.25001335 -3.25836921 8.37024021
-11.10226917 -2.98197460 8.02025890
-10.95436382 -2.67450213 7.69946623
-10.81766224 -2.35006475 7.38938332
-10.70440960 -2.00833321 7.08993483
-10.59091854 -1.63179576 6.83280087
-10.47389507 -1.30150211 6.52156019
-10.33843517 -1.02448046 6.16742182
-10.19942284 -0.71902603 5.84001923
-10.11181641 -0.36468229 5.54438257
-10.01495647 0.02974503 5.31190395
-9.89167595 0.42162126 5.08662558
-9.72193241 0.74990165 4.79848242
-9.55375576 1.10302770 4.54310799
-9.37273216 1.47763431 4.32895136
-9.18923855 1.84346342 4.10164261
-9.03813934 2.23117423 3.88449931
-8.84081459 2.61442423 3.69748569
-8.66118908 2.96673846 3.44809985
-8.54866600 3.29517412 3.13199496
-8.44091225 3.67927527 2.88901472
-8.32665443 4.07696676 2.66908526
-8.25783634 4.48623896 2.45251822
-8.17454529 4.92335653 2.30312824
-8.06094742 5.36211872 2.17945385
-7.97279549 5.81576252 2.09547329
-7.90421534 6.26586819 1.98319936
-8.64764977 8.00439167 -0.01027253
-8.91931343 7.90398359 0.35934463
-9.16531372 7.80463696 0.74675381
-9.43214512 7.75981569 1.13004744
-9.73369122 7.70291090 1.48531103
-10.09685421 7.62762928 1.76927042
-10.52626991 7.57430458 1.95153081
-10.93018723 7.48805189 2.17027640
-11.32245827 7.37400150 2.39980793
-11.70529461 7.24583483 2.63620543
-12.06322479 7.09765673 2.90149474
-12.44375610 6.91820908 3.10946679
-12.80806351 6.70224857 3.31269646
-13.13456821 6.51859808 3.59349799
-13.42010784 6.38962650 3.94340968
-13.69326591 6.21998024 4.28437853
-13.96196842 5.97668409 4.58318424
-14.22274780 5.76398563 4.90905142
-14.48907280 5.59818649 5.25888729
-14.74751663 5.38072348 5.58438635
-14.93986988 5.10337400 5.91007614
-15.10089493 4.84847498 6.26962328
-15.30598927 4.61152983 6.61887264
-15.58011150 4.38890362 6.92734718
-15.84242344 4.21465158 7.27369070
-16.02142906 4.08258104 7.68687105
-16.12674332 3.93552256 8.11914444
-16.17394638 3.70884490 8.52729034
-16.20448112 3.44611716 8.91575718
-16.28050613 3.23973608 9.32864380
-16.40714264 3.15900874 9.77219963
-16.48753357 3.13281393 10.23361397
-16.53142929 3.11021280 10.70083237
-16.60429001 3.07468390 11.16328812
-16.76614571 3.00994992 11.59762096
-16.94915009 2.93286991 12.02248859
-17.04184532 2.88137555 12.47903252
-17.02730179 2.84406900 12.94558525
-17.00635147 2.71869659 13.39533043
-17.07448959 2.55052042 13.82836819
-17.18967819 2.46497273 14.27415276
-17.37448883 2.41960859 14.70225239
-17.65006638 2.31062913 15.06506252
-17.88951302 2.17033482 15.44075489
-18.05170250 2.00339603 15.84850025
-18.16616821 1.84154975 16.27277946
-18.22764969 1.80252814 16.73462868
-18.31638145 1.82888842 17.19489479
-18.46575546 1.77077198 17.63455772
-18.65825844 1.59039247 18.02166367
-18.91788673 1.40372443 18.36367035
-19.21649551 1.23588490 18.68490219
-19.51603889 1.07960045 19.01050949
-19.79962158 0.96863633 19.36794662
-20.06986809 0.80056679 19.71135330
-20.31934738 0.63481450 20.07001495
-20.48168182 0.49968821 20.48829842
-20.53489113 0.34596556 20.92794037
-20.47670174 0.22461770 21.37694359
-20.32400513 0.20492233 21.81784630
-20.18080521 0.21349144 22.26335335
-20.14780426 0.16692124 22.72840309
-20.18627548 0.18284880 23.19511795
-20.26725006 0.20682842 23.65589142
-20.45528603 0.14486797 24.07927322
-20.69943237 0.05202674 24.46985626
-20.94831276 -0.03811731 24.85793686
-21.16175270 -0.07191586 25.27252960
-21.32108879 0.02894265 25.70029831
-21.47333717 0.18640985 26.11579132
-21.62141800 0.27678937 26.55186272
-21.70793533 0.37691781 27.00015259
-21.72871208 0.55195463 27.43559456
-21.73355865 0.69040161 27.88304138
-21.79017639 0.73114491 28.34566307
-21.86263657 0.72163248 28.80894852
-21.88959503 0.70203447 29.27772903
-21.88277245 0.75724161 29.74189377
-21.89730072 0.88698488 30.19198036
-21.90102577 0.98840266 30.64863968
-21.82616806 1.12080026 31.09163666
-21.79843903 1.28238428 31.53045654
-21.75287247 1.35247004 31.98993492
-21.66791916 1.35561883 32.45180893
-21.57963371 1.33977902 32.91262436
-21.45418167 1.39772749 33.36107635
-21.26947784 1.39372540 33.79208755
-21.04497719 1.44776559 34.20030594
-20.90873718 1.52013612 34.64325714
-20.72027206 1.64565265 35.05375290
-20.53591537 1.70985186 35.48016357
-20.36360168 1.69936061 35.91687012
-20.19279289 1.78972471 36.34362793
